-4.029170695195293 2.9607065894781743 7.0734429929778955
4.89495955285703 -1.0194954516297265 -5.176482471829271
2.2388256018042876 4.470756079759403 8.225729657068769
2.351782728074551 4.4123823496984285 5.912532751291998
1.3732227583855106 4.8077291163138645 0.9651443151169392
-4.871995833456927 -1.1241248145905978 -6.797501207415193
-2.8926499278751603 -4.078305578884916 8.040415712094177
4.9105041150256765 -0.9417798767843271 -3.4475280274056086
-4.047033506579689 2.9362424621650893 -0.5861555610426628
-3.810029664969095 -3.2378502053145515 -0.10651536765719172
0.573931640313618 4.966951023741519 -5.835360501825447
1.5375541606316485 -4.757722901044606 -0.8602294926336427
4.583932306236255 1.996888732965253 -8.289735116630279
-0.6116293798964418 4.962449949535762 -3.1119554540635725
-3.1326711947568775 -3.8969694873761225 -0.15886613097137747
-1.4390345196017003 -4.7884422990566256 6.601164637560526
2.9406036440245926 -4.04386575058437 3.4061825333723235
4.998504722530203 -0.12227239608044026 3.530090624951516
3.479387821307391 3.5908021929560263 9.501783031578984
-0.3486195980691299 -4.9878316306629795 -4.548173132415072
-1.9779136115574523 4.592151755464507 0.7547346348127242
4.982554533454354 -0.41731321708455593 6.26574041472885
1.5704934261162427 -4.746951695406818 -1.0018034252601602
0.1057188831453673 4.998882226832964 -3.636043183218753
-4.999686709758265 -0.055971459392935796 8.250740020148392
3.4771877366153325 3.592932708016105 4.5541743590902595
4.912812428398665 0.9296634032657265 -7.615497250132865
-4.999729087478643 -0.052048552525262734 4.522358556287543
-2.297418456364177 -4.440931032605352 -4.121925430428799
3.6170045071841983 3.4521411319656665 -0.07514434565607253
4.950488442952443 0.7019004033296311 -1.9808321855963857
-0.8399580337421759 -4.928942128038427 0.87810877789952
4.611893449728018 -1.931434391418928 -9.000986109445119
-4.82842591460569 -1.2985773704959624 -6.330180986999432
3.683086753562721 3.381548752529056 -5.568975627811534
-4.536525035161104 -2.1023654785399564 8.23333400456077
-4.4386486896005675 2.3018248869771045 -2.9682395002584716
-3.838851693211515 -3.203625708088741 -4.1037020099980275
-0.9116210893843044 4.91619232632225 8.986382444617451
4.977741619885191 0.47126252308321326 -6.57540791246735
-0.2599220552513972 4.9932394820591055 -3.8515851769198512
3.1666374595117013 -3.869419491347155 3.661669354766035
2.991462491652696 -4.0063889178454755 6.829626263039302
4.832668972481917 -1.2826966135491942 -9.64199242503571
1.4351273221395688 4.789614762091886 -2.513486442304962
-3.3025161106314966 3.7541160529503363 -1.1996690463736925
-1.0324143522400515 -4.89225107749886 3.084488884451746
-3.033106446656796 3.974954752352407 7.39653498196234
0.5058778299159836 4.974342933614398 2.047826830355996
-4.991507634264071 -0.2912928716661261 1.9494197555677317
4.326728273447188 2.5058775803603646 4.479854452086865
1.9996341525035248 4.582735346508841 -4.469672419953266
1.1995072385067491 4.853986236565769 4.351556277819437
-2.3183230283611267 -4.430053987952121 -1.2788310234926854
4.740238594507041 -1.5906407725020482 -2.3997392133139295
3.791437031304164 -3.259602006020899 -4.356808370361074
4.676704371368899 -1.7687385965198565 -5.371641634231052
-1.6817578159050832 -4.7086824748163005 3.5278387701561815
4.4620524380997235 2.256122345895344 -0.25335670381220154
4.2172723858396655 2.6860032806447225 8.270844662695321
-4.701326319558064 -1.7022135109999061 4.4787973101994165
4.009197807248174 2.9876969294686555 7.064173416803349
2.1230527345606633 -4.526880502760648 9.466435661461439
4.638276779921998 1.8671873266591175 -4.861470283797152
3.38294446150414 -3.681804825133791 -7.465724083173826
-0.7859832625081099 -4.9378366023044045 -9.232316117444393
-3.658577964885195 3.408050362723019 5.632181976506791
4.930138515893741 -0.8329070861152876 1.0130192371680273
-4.99733583333052 -0.1632010076891699 0.40961644224642413
1.7633535713812147 -4.678737456012799 -5.863004241129226
-3.6988565063340184 -3.3642919828026963 5.589073345353599
3.3107154772760286 -3.746887111793597 -5.398833520137405
-4.663515773694136 1.803225063187063 -5.283668463563869
4.051550942861512 2.9300059654202046 -5.649967751423306
-4.9830984452190705 -0.4107674345116558 -2.5589759431807764
-2.82085578273757 4.128289313141221 8.936064509722076
-0.04628458532267249 -4.999785769126664 3.0439478105172633
-4.260214884792098 2.617359191130605 -9.805218628227994
-4.532563301166496 2.1108931571537854 -8.821306878336308
-4.7251824880591595 -1.63482428858243 6.650876182441404
-4.4133635807337805 2.34994082994715 7.205737797431123
-0.27496579647423336 4.9924336561209595 5.916335438366762
-4.340886240532776 2.4812711755777968 8.210949985736558
-3.3205510289695113 -3.738173466281296 -0.3181229382289441
-3.8162954218581726 -3.230462699537692 -1.144418926333021
3.9727699285199627 3.0359675714749477 3.2581770318604732
-3.193058193220361 3.8476459523594846 8.126112818561953
3.1352956011931843 3.8948583405739767 -9.496193845699189
0.935675309890614 -4.911670969686498 6.3811763935969275
1.544795165241846 4.755376735595763 7.715266559701803
0.29321669077537577 4.991394992609855 4.045533018675073
2.110746693433317 4.532631508975809 -7.939678911540136
4.761457667061208 -1.5259491750330467 6.93134072665903
0.5262571317560196 4.972228215928541 -4.17440109422857
2.66822901113792 4.228540403510643 -9.5090968870001
1.4027437120049002 4.799198899653016 -3.27671770764836
-2.216887113161619 4.481675080536065 2.490682430137518
-4.6044886309404385 1.9490214076659709 9.93248540080766
3.869664896763034 3.1663375667733122 5.437631095595776
-4.694943337226933 -1.7197404048950027 -0.7318388906687403
4.574486790368873 -2.018432709985817 -5.8933885050591535
4.822882350698119 -1.319016994327435 -4.430279679481091
4.756958262334622 -1.5399182089988979 8.877158684964947
4.141376358659924 2.801607013114557 6.476330799528995
-1.3407479487401472 4.816886436065219 2.6657137963577053
4.9995290284337495 -0.06862575207814199 8.853709445625281
2.358525969326888 -4.408781606295628 5.932232107641578
3.8766688244033993 -3.157758512916839 7.648911584196448
-4.613853461382457 -1.9267475799619207 5.815598004848894
-3.527844135545566 3.5432069873628267 -6.2610580638216184
-4.755082270017372 1.545701331230077 9.324004656708457
4.3046885021820875 -2.5435520240760434 4.059769062723401
2.9641623699381956 -4.0266290423432824 8.765331549253471
2.6808731483328385 -4.220535411834377 4.7479114693932605
-4.756883932104861 -1.5401478034534875 5.529079425201182
2.643698144253199 4.243920371787411 -9.144054526916015
-4.824476091714623 1.3131757081495186 2.0099894022022795
-4.996851318186509 -0.17741731577766737 5.8099675199903125
4.3487175135842735 2.467520210058149 -6.039650755031419
-2.405603945916132 4.383271569888493 -8.112655817521937
-2.7135981683457766 -4.19956961851455 1.7264884333238744
2.308422390445372 4.435221084375668 9.641306805377724
-4.849130838162882 1.2189873315083068 -6.400217999657101
4.737741964822505 -1.5980616617514456 -0.42064444868960216
-1.4394785727335389 4.78830882866185 -1.4825108066424235
1.2732053900909188 4.835178180237357 2.903576776653301
4.866430842908401 -1.1479768513301254 8.828967446881506
0.3778691929496013 4.985701041279914 -0.03324694158394159
3.8637350636344325 3.1735707583165413 9.551303114076116
2.919368373337579 -4.05922262271439 -5.800184124529231
0.14065562543076876 4.998021207941667 -7.954754210045259
4.996001519298296 0.19992203272555265 0.17463977615870618
0.5611546135131845 -4.9684107619774025 9.770144796509278
4.9999997997334065 0.0014151557850429397 -9.518144457522574
-4.919646011469277 0.8927951175014497 -7.112354047440763
-4.53375081332977 2.1083414245874996 -5.277631422489404
-4.964872823636201 0.5916399624084688 -3.0926314674041038
-4.130649789205815 2.8173981470381415 2.5242142985263847
2.884098234884413 4.084357644910226 -3.228388371418978
4.765325819769821 1.5138262223369918 6.445656995524999
-2.9603746518025997 4.029414587873111 -2.6375343914879075
-1.4370762252080804 4.789030373984038 -0.4487485249598464
1.6982619565354837 4.702755184674647 -6.75863373763431
3.5896472864811955 -3.480579313657166 9.601737637122994
-4.43368142989144 2.3113781556110187 7.749240852753289
-4.459717086484975 -2.2607351699201668 -2.387427516389609
3.0861435216302664 -3.9339189320446777 -6.629174546365841
-2.661716429559384 -4.232642868068796 -4.69800401714902
4.1943590336655765 2.7216451452582806 -8.470425231336893
-4.97239125058376 0.5247144472168397 -4.0606740283712295
-2.0181249490008133 4.574622573526746 4.7821987333226
4.726359980640045 -1.6314169710421165 -1.6758022952617964
2.153676035448457 -4.512391775359827 -2.45620442051254
-3.8373264046719386 3.2054525521379245 0.5255419729571145
-3.8499687211078686 3.190257175603723 -8.017539533943982
-4.030074335692408 -2.959476448426882 -4.128886025975356
-4.94753582580148 -0.7224190282729736 2.7488823823156405
-1.2363838907028737 -4.844724437448473 3.0533343888130595
-1.0734333935364868 -4.883414865607953 -2.037350483009268
4.7722257035766305 1.4919322485027702 -6.476951190246936
-0.8922116976898247 -4.919751852126836 -7.583525065696282
4.363367656045264 -2.441520570910281 2.4082049021707856
3.5106681912035107 -3.5602259550865405 4.778158559877006
4.522943566064993 2.1314271036540964 6.364204672507611
-2.192852891173274 -4.493483748459876 -4.5780998951204
3.968881473014334 -3.041049136920278 4.309623803563543
4.100728521705533 -2.8607736001422337 0.7039305150513577
-4.963322092382654 -0.6045112135157398 5.405641962180818
-4.967202927103392 -0.5717473926267624 5.672886868626568
1.2082608396645858 4.8518146855927045 -5.448605140469374
-3.7891772899782734 -3.2622286040547355 -6.098056088461443
-3.082289345734282 3.936939469838587 8.745658368531824
4.652609264529692 -1.831181867432198 -6.194478208257839
4.977788970741013 0.4707621084678762 -8.004518535348652
4.999689284275322 -0.055741014545118414 0.06253718380499507
-3.02080620915059 -3.984310460638985 -2.5640820050127466
1.0275887542865987 -4.89326694060969 -3.9339290899784185
-3.7956243896597774 3.2547251024656196 -4.020257803902043
4.803844681408317 1.38675025758246 5.376964397345835
1.7441296134737012 4.6859376747246735 6.103081738642331
4.963476465753444 0.6032423840478234 4.718510166087842
3.2290786453609317 -3.81746658165779 3.2415662431073518
2.3933743753540755 4.3899611728805175 1.0340138238355152
-2.664129693815535 -4.2311243156553955 -6.426596990110123
-3.997786039478324 3.002949680323035 6.0317963561554855
1.858628895458212 4.6417128981624645 6.575773791004554
-4.877492972809991 1.1000283179032975 7.1125766001330035
2.077636909966473 4.54790334883504 -7.824459031613273
-3.916969835130816 -3.107627279883363 -6.450783760050809
4.4231820461577005 -2.3314074261158595 1.2730308320262385
4.616299086486641 -1.9208807209461511 6.328917526709212
-3.2585281294337287 -3.792360007922392 7.558442296856104
-1.897728526215912 -4.625864939747634 0.271154576669252
-4.621509576714356 -1.908310570200117 -2.684079758032068
1.7490963725822042 -4.684086023913286 -7.851525667427596
4.998822793743594 -0.10849274975541531 -0.8338294505772819
1.2532969927475957 4.840376705171802 0.815360124664867
3.9010605818950412 3.127575152795648 5.436414129252924
3.888930856322556 3.142644872514601 3.2061790326661903
-3.6614756106533184 -3.4049370555989587 7.441992956752202
4.491568036816052 -2.196774128273637 -1.9120561714754842
2.4012007132499393 -4.3856852525788925 6.293959335681716
-3.987357354750891 3.0167832745349763 8.206575934503274
-4.852117053468151 1.2070460220901078 0.8912968388424041
3.347839642865032 -3.713754128326394 -6.6824649445089594
2.3629994111007226 4.406385569050629 -9.760945680101303
2.798995010730371 -4.143142156613322 6.1990464492701385
-4.313330662767455 2.5288690344954734 7.644340795780007
-1.9576907852092855 -4.600809362439032 4.0742281071473325
0.9320989766702121 -4.912350913533188 -9.35175818200402
-4.69871447948017 -1.7094099099757767 -7.818613612324956
-1.8104626077711783 -4.660710798350653 9.084264294027648
-4.981107842059046 0.4342403318185328 -8.51121093789222
-3.2417772832870515 -3.806688855890907 0.13974088706530807
-1.6814007702845915 4.708809982329546 3.518389441262581
-1.419460003492985 4.794281311988659 -2.50774301231605
0.25828348849933347 4.993324507737166 5.533318293701887
-2.196826131695197 4.491542602169228 6.679247196009111
-4.406703570026368 -2.362406325321042 -4.089771140364801
-1.4843711329000375 4.774582949306993 -0.2443612611586321
4.279512514340841 -2.5856861061621803 -1.0230229084515088
1.7427439213192908 4.686453203084894 3.0976976394034743
3.1507590796971896 -3.8823597491352753 -4.202099518520585
-3.5916856388249356 3.4784758547183725 -2.67061093704986
3.1530584798922128 -3.8804925231701977 2.647001559003133
1.2637236056790213 -4.8376649996097925 -6.794666464869672
3.467992498764363 3.6018089938965545 7.1058017256208394
4.999976551308812 0.015312947529322524 -6.527619634664232
-3.751522078321496 -3.305462463236629 -2.163908969490384
-4.9866764757929145 -0.3647707852522696 0.6663469563830979
4.2650803825112735 2.6094231796926866 9.423312585578596
4.953114451752153 -0.6831231425182154 8.11782386870378
4.89999842153062 -0.9949952105399449 -7.478799910823106
1.308808647331503 4.825662640992456 -7.359751553081583
4.9077621454235025 0.9559658591958706 -7.247353143248909
-0.6504970064339555 4.957504780090531 3.237366225680894
4.848888713412914 1.219950099363433 -4.685453446313181
2.1312502951545937 -4.523026882454211 -3.9292489644045947
-3.1643373870991613 3.871300672978844 -3.996683564707835
4.937174637550835 0.7901307476138274 -6.57142960851445
-4.267119448197702 2.606087415036752 5.542820438301245
-3.040536997144414 -3.9692738339645994 6.8116884638027955
-3.4677587251173234 3.6020340676307705 -1.9464967224417062
4.847488695962439 -1.2255012617359367 -0.036044178904353075
-4.43797661092122 -2.303120405214674 -9.751486273467904
-4.797427912043151 -1.4087886387777584 -1.8271925700513059
-3.813406051893115 -3.2338729541194047 -4.012983309986026
-1.3354886661056253 -4.818347229362307 2.426864401351885
-3.1519948285210804 3.881356541336594 1.2955525307010145
4.738897537127394 1.5946316604808517 -6.7123693416730745
-4.493860458097959 -2.1920807884618676 5.851582855630458
-4.981296204614305 0.43207420878261094 1.176877365268794
-4.6368610091800715 -1.8707003986597033 8.170404479792335
0.9375581802931003 -4.911311908091919 -4.097617761193084
4.649160191854963 -1.8399210609347132 -4.515433287464699
-3.9412213646666734 -3.076812336606665 -8.954611758534538
-4.204987123774409 -2.7051956100976184 6.454629464465359
1.1103534289295576 4.8751528450772055 -8.852099944802687
-2.8766588104455932 -4.089600724800129 -1.4513591794085716
-4.598248896838651 1.9636972991584338 -7.446305954791422
-2.7116602425647764 -4.200821196967748 -5.665161954071203
1.7310409566909735 4.6907885484488 -7.785804592031136
1.9457612133180087 -4.605867269119599 5.404092811563038
4.62749400908528 -1.8937526754779381 4.655636459570282
2.427622358373371 4.37111538227095 0.6698012322438558
4.87428963901326 1.1141366680115963 7.0547328846946975
-1.2187482129440994 -4.849190942151646 -8.170739078454286
4.582084512365031 -2.001125063943908 -7.276500157824561
-3.8225980654967957 -3.223002331624995 9.069437385651359
3.0480861311258893 3.9634796501607026 5.967021590964393
3.9031552660242226 -3.1249606348412424 -7.297682418498789
-4.595771650575385 1.969487988226282 1.649659929499741
4.981340990819288 -0.4315575664769534 6.178404969400418
-1.8697477918571166 -4.637245216165028 -4.103667155058228
-2.572646531840494 4.287363971277582 9.984323168237616
-4.822715878173482 1.319625537193556 -2.317189993901863
-3.9548231019002493 3.0593094372220815 -3.3098736304232297
-4.607260094957605 1.9424609178594165 8.231136630290745
-3.9245060455996557 -3.098104629939369 -5.18486187447804
2.5112699919314574 4.323600701686567 6.113545851702291
4.5688345457981665 -2.031194449854878 -7.682506436293213
-1.3103464204719717 4.825245305511036 8.64261322773367
4.778089421043058 -1.4730449702967052 1.3268509679096763
2.7189716703891476 4.196092593785467 -9.691750040360855
-2.0065289045159678 4.579720707132909 2.707477214474956
-1.6646295515606906 -4.714764941762299 -5.5336731950586815
-0.48892108447357085 -4.976038200532346 -1.9386543518880295
-3.3633005231975126 3.6997580448806833 0.5059835900731091
2.1149213266938096 -4.530685133828624 -0.9732940252793405
-2.677348650629215 4.2227720993411335 -4.267734784863042
-4.7603910995004215 -1.5292732194729521 5.861420289329676
-4.163208065756982 2.7690609601841576 -9.18102208907875
4.503415245338834 2.1723837432759834 5.062259184593522
-4.71007318863818 -1.6778589206699601 0.5650895806392953
-1.51197150457421 -4.765914620443342 3.7843626093993503
-0.1482555319501022 -4.997801546404798 -7.471581552673372
2.9695348278062275 -4.02266862995771 -9.19177532164354
4.0828950153099255 -2.8861684451808007 -0.19003953514885374
-2.957000806608669 4.031891148048975 -3.56922295119902
-3.347468166000746 -3.7140889700721496 -3.940074892693053
3.409631140325061 3.6571047957264806 -2.5014797305383585
1.0418261841628422 -4.890255433205171 -3.825249880701726
4.960038545075419 -0.6308863854658069 -2.8266814226239028
-4.603857946156642 -1.9505107053308763 -4.288777211143371
-1.007364313683883 4.897470483782031 -6.544396181056841
0.39250003024317626 -4.984570565882191 -2.2784232310004793
3.5000426056204654 3.570672451911755 3.863470775295742
-2.181002811859141 4.499247352020393 8.723474703604289
2.056587785101908 -4.557460551904934 1.9088252385477045
-3.8006272600711304 -3.248881719915979 -3.523343568379101
3.937894722224271 3.0810688334859107 2.34288705019412
-4.103816060867396 2.8563427207824366 4.695517302866115
2.7811056832078047 -4.155171618456842 7.988579809625794
0.023178374724832394 4.999946276005885 6.530718315869642
-4.989366107693698 0.32592306361692186 -7.507037122053264
4.693441198636241 -1.7238357563712412 -7.360780594615757
-3.5181069370341858 -3.552875396012636 0.38451294984637663
-0.8103563674044262 4.93389527227799 6.3897655394868735
-3.1066279173166036 3.9177624970573577 1.1727855490984105
-1.478489110247212 4.776407640777785 -2.821537246409349
-4.9929892001614915 0.2646863182537247 8.90824693857649
4.3120657364236195 -2.5310253030662153 -9.311416704271544
-4.486022088081122 -2.2080774047230074 -8.72057093787748
2.746179988005801 -4.178336448094679 -8.393680579591612
-4.831265871730385 1.2879713027289255 5.038485336135102
4.481603407842594 2.2170320013057196 2.0016386526986523
1.0000822716877587 -4.8989626912088085 -7.738208413036278
-4.949181077135535 0.7110602405728681 -8.701347122459513
3.2567805792107136 -3.793860864459308 8.556917105802885
4.983975709181816 -0.3999826624812781 -7.866759626416824
-2.677299160580324 4.222803476928082 0.44344109446279845
0.30299662136747146 4.990810860715912 7.668966704904115
-1.0489303005149377 -4.888736567321013 2.4769729896243433
2.1712457890364014 4.503964001142959 -8.269157254077342
4.96349266758615 -0.6031090604679382 2.047062783780312
-4.911915919164235 -0.9343885717735262 3.2762434776677907
-4.394895312037063 2.384301825741584 8.696671014048903
4.266114783517948 -2.6077317066465264 9.606056159157735
4.139047264736457 -2.8050468338831083 9.090071188454957
-1.0393341720842195 4.890785670905853 -7.750932762212434
4.670116400379341 1.7860606951914872 -9.3884236076317
2.984364418849224 4.01167907683388 -1.0329676962030838
3.2436281689808415 3.8051118645046422 -6.34036848298434
4.197876051489949 -2.7162173433521763 0.1419719271770159
4.885111945606615 1.0656834796934527 -7.10889899366774
-2.8547585524188697 -4.1049182217665825 8.2114265608887
4.991820194920865 0.2858865886679957 5.675572451363493
-0.4420482100626153 -4.980421004290745 7.798771085883963
-3.42367196724138 -3.643963537238749 -7.837158549187233
4.901222849584177 -0.9889461960662776 -0.9896818292571634
-4.992528816119716 0.2732325387179749 -5.042422358927993
2.3652612721551094 -4.4051718598078775 2.0655944705761478
1.6170116588562657 4.731307778524127 2.5059330409552487
-4.993360071900808 0.2575950161527913 -9.546523705480102
-2.236371107861257 -4.471984376976669 8.39852603154285
-0.8190967030505125 -4.932451782942412 1.201315159300556
-4.964752577336445 -0.5926481636106887 5.569709122668144
3.407269547835259 -3.6593051565009596 7.703867702658993
-4.45187332923827 2.2761423198949933 -2.2564413713557263
-4.274119276941995 -2.594591375626003 -4.787715557795553
4.847057467617015 -1.2272057307632387 -4.184280463971801
-4.325789857980904 2.507497179378184 -5.3781127322456035
-3.6037662416039824 3.4659585796537593 3.6700622194347723
3.7850832077732175 3.266977978228995 -7.32362133730879
-4.200816932181491 -2.711666849429938 -1.108922082093704
-4.951054322416483 -0.6978976260749602 -7.26515198467146
-0.8076473713104094 -4.93433944146685 4.396799776388507
-4.950401331664681 0.7025145233036484 -0.08638881139672883
3.088738930159592 3.93188146074072 2.777411746222837
0.2417667543703048 4.994151463109749 -2.7458448976128613
-3.9208343718318215 -3.1027500428913326 -1.5098546598730742
-1.9083325889491989 -4.621500484686164 2.673977284911075
-2.615518201861025 -4.2613453903355065 -8.709331431996905
-4.968812089057607 0.5575898345872 -4.454097516347328
-4.340730744089903 -2.4815431907006396 -6.943131294938296
-4.978417696903885 -0.46406598146622813 5.635769515577065
4.095236892382227 -2.868629428014634 -1.9181968076855966
4.927201365784515 0.8501098170302537 -4.8260144951697175
2.3098790107984417 -4.434462645628308 9.649336975701164
3.634295408691525 -3.433933150537981 -7.912595957230273
0.35626680632865104 4.9872912450255384 9.187781661644983
0.13121832281126233 4.99827787860565 -6.151440725368329
-4.640688526037859 1.8611851074787158 3.94742679979133
3.1761537004690665 -3.8616120559937994 1.3551496875020792
-0.43300310343439813 -4.981215545669167 -6.2776688410336545
4.952872342980226 -0.6848763057235734 -4.476031178889701
-1.147582913327681 4.866523754903325 -7.248282389607203
-2.030179604072898 4.569285586960659 -5.501810823270869
-0.4408979931915029 4.980522960453019 -2.7848278377197406
-4.24573682484365 -2.640779963224229 -1.354973662910517
-3.2638276244632003 3.7878000525094913 -3.378823369619404
2.1795108279764506 -4.499970283316703 -5.317390083565396
-4.779561585743493 -1.4682612329163862 3.919335312934626
4.997892348833565 0.14516221778034802 6.789478748464365
-4.867827837349162 -1.1420385921362646 -2.1980004423935107
-1.8294701730694543 4.653282592519954 -6.24145713880643
4.623948042418773 1.9023944125789467 7.527795684583925
4.1746267758966065 2.751815997113016 4.926452895216265
-1.8374408692805173 4.65014097118546 8.303891820687571
-4.87294847679469 1.119988009982387 -9.381836324811463
1.7845001146783115 -4.670712937091413 2.4500520069014478
0.6036096613625709 4.963431814451545 -1.0400862118036827
3.663514969195452 -3.4027427276361704 -9.525973611027727
4.401947956506331 2.371255825129322 5.612219263659366
0.21570947520339062 4.995344775118879 -6.996770578320892
-2.1515825535762243 4.5133903570538205 7.948088095275413
3.0577074081426625 3.9560618557082092 7.11728435494723
2.7464535842727344 -4.178156616192774 -0.10297920435997554
-3.6753417877191445 -3.3899650062272677 -6.733020741859866
3.710488348172989 3.351458819390816 -0.918213505534597
3.1413457829341 3.8899802919863418 7.369305535598237
-4.900044138003252 0.9947700466037221 3.305584227182141
4.023885127173778 -2.967886197836714 1.647766147029639
3.340756086324959 3.7201275208899416 -0.11955750915272567
0.0012060703039080832 -4.99999985453944 -3.2622618744004184
-3.808805229852976 3.2392904656798867 7.498688913071518
1.3634290738308619 -4.810515685519872 -2.576295950464022
-4.769213362367383 -1.5015338505063436 2.8220847051992735
2.3816747953761386 -4.396319502614662 -5.562018473959254
-4.977753805934068 0.4711337893941617 8.16504057586635
-3.842370439734263 3.1994045389503856 1.432510167626777
-3.14067338451009 -3.8905231899874266 -7.243388760921372
4.862843636961442 -1.163078571061998 1.0390294462163556
-0.45375481307523957 -4.979368089387553 3.0873261049543554
3.711904203908387 3.3498906222453355 8.161677106918596
3.374991830482888 3.689096114792046 -3.554552546823353
-0.5155539072306028 -4.973349391379943 4.592295759289106
1.3190193827697492 -4.822881697478978 1.8421414978602186
4.258372239516798 2.6203560578121228 1.860007673712559
2.2187870883324603 -4.480734745178425 6.637558479970128
-3.8894187378254585 -3.142041037582453 -2.1023304230690414
-4.998731476709956 -0.11262159539403024 6.9065813347117455
4.904786498438823 0.9711176060252606 1.1705466197239485
-1.0535771115205446 -4.887737234148336 5.280264089996923
-1.4320675212425114 4.790530514943239 -4.637723254907106
-3.816672849992978 -3.2300167733506395 -3.6329924625157766
-2.366905729426403 -4.404288508716075 4.133119928417582
2.4369970842631394 -4.365895694046406 -6.487030316210502
-2.893617878159356 4.0776188609526205 1.14241438771597
-4.455532534765948 -2.268971095373876 3.1050981781984817
-2.867890073183527 4.09575469579605 7.864613019996817
4.992165615034169 0.2797900499848267 -2.8346444382902884
-4.8861007978574715 -1.0611404210454798 -2.1426883881695886
-2.0293848982801816 4.569638600002449 6.284441929664062
1.440942164912716 4.78786859441408 4.66826229911214
0.5595600520597339 4.96859059977162 -6.57597291243059
-0.7918156736329551 4.936904692111161 5.208661023867666
-2.2527690939867746 -4.463746342387525 8.035715453697868
4.872434828948497 -1.122220494221004 8.047571033545807
1.2233494841674317 4.848032182193852 -2.164157099890069
4.008287792744714 2.9889176921644585 -8.877808399436908
-4.4599008931863775 -2.2603725407452986 0.6246897162737657
3.8608419414279194 -3.177089785213992 -2.189960192789746
4.898126930861421 1.0041676001395747 1.4425455782475254
-4.520284019802848 2.137061622956859 -3.787977443162161
3.2526840643054635 -3.7973736157788442 1.752319266153446
4.978964602480581 -0.45816098398421345 -9.311487581445926
3.750302046000089 -3.3068466193289865 -9.181035013009657
4.34650374786881 2.471417643734542 -8.147592643070112
4.940106204177609 -0.7715897170426105 -7.943077002236116
4.356495922927918 -2.4537610465390527 -5.7421157068987805
-3.991190317688664 -3.0117104522161924 6.104980920290423
-1.3710140089613945 -4.808359448630229 3.2225156546839617
-2.7854944444505514 4.152230810050799 -0.20650691905488827
4.8828124564431254 -1.0761703002795846 -2.5083807393159407
-3.9504991515542605 3.0648909366515915 -5.455499620009789
4.257752599580138 2.6213627754983806 6.670571297530554
-4.952453047194815 -0.687901748312062 4.36675982256701
-2.4576263780809953 -4.354316546343466 8.925605148484713
-4.31224596062095 -2.5307182330532774 3.5975888532259237
-3.853096050118488 -3.186479378336114 -7.613315211958261
2.5058042463361687 4.326770744913998 8.500915154647114
4.999859962663969 -0.037421300750448167 3.432253222568974
0.07839279792239874 -4.999385419152428 1.774321190361217
0.6860291676305765 4.95271279009394 4.210307216390705
4.7620164082467085 -1.5242046212989657 1.5539575780580002
1.8331301774254531 4.651841974165946 3.1103089206574897
0.06783103063953005 4.999539873956641 -2.1594639918188774
-2.1818615031007744 4.498831001636629 4.607907466627751
1.497707606254246 -4.770416326293564 9.023777510845228
-1.929876615414055 4.612545528152323 -9.865505686884608
4.053812717748485 -2.9268758855511177 -6.719030925950622
4.2299743613818865 -2.665955157547085 -0.18022639613141322
-3.4024512550727453 -3.6637856728872533 -1.9111784119488888
2.0279562775296958 -4.570272785778536 9.70819176309342
-0.7879015835569475 -4.937530870245618 -4.4028794628968
4.12690401676641 -2.8228820797896015 8.00349547355
3.540568809886082 -3.5304918216109566 -8.648820989346653
1.7158477284975278 4.69636738049845 -7.8187685873571215
-2.3268634014874654 -4.425574167361584 -6.653520078119799
-1.5366340578866966 4.7580201525574335 -8.572860040324295
-4.661502274239376 -1.8084237742468234 4.205708691169651
-4.561348706940034 -2.0479496999917943 -9.259345248805989
4.077311683724461 -2.8940506964744066 -7.97959753051706
4.982762089096744 0.4148276310231087 0.25784169468467155
0.2753046537843294 -4.99241498150992 0.10757607951661896
-4.1376924726488875 2.807044887739549 -7.767082476706719
0.7725387347021178 -4.939957884778457 4.065484851387826
-2.753722366013945 4.1733695176577115 -5.187258210720847
-1.2996804679844218 -4.82812910775383 -6.402380358451172
1.1122298104386477 -4.874725104944033 8.090984484644522
2.5153915606482165 4.321204148917259 0.6866775946654364
-3.986035794490765 3.0185292188478776 -4.601885498900529
2.9996733750871325 -4.00024494784924 -9.322115340728702
3.6353285878493753 3.4328393580773726 5.684263334679244
-4.507226535340891 -2.1644650514893855 4.449811802176537
-1.998584619463305 4.5831931574879885 -6.852945166383185
0.7437779049093608 4.944369972824509 7.59185626261765
-3.273143986689624 3.779752431363402 4.3363353380854
0.5190128178830253 -4.972989613388823 5.17082084632484
-2.6281691541587855 -4.253554619036683 -7.193078484420983
-4.635661620693787 -1.8736705522654336 -4.675035702619878
2.0980455236017295 -4.538524537875139 3.5351476271535525
4.776104182443695 1.4794691069582508 5.237061658933817
4.5889578379173015 -1.9853125602326116 8.403920872635297
-4.867585612541764 -1.14307055975404 7.852542594767257
4.306955510814691 -2.5397114457872894 8.939077837660502
1.234508674657597 4.845202610025214 -7.448070829881786
1.6145079434388503 -4.732162729722305 0.8047221067507149
3.2362214580617943 3.811413212232491 -6.196405595620595
-3.360795727893003 3.7020335054367264 5.091663294532978
3.590070219773907 -3.4801430742273416 -6.574312148848749
-4.994745791950924 -0.22916036696719094 2.77667328382757
-3.496577917232784 3.574065313997499 4.179802234008305
4.736690428750356 -1.6011757499365165 -8.138009424278625
4.997062931819328 0.17135359767807096 4.411375522753197
3.201373353515336 3.840730223720741 4.650627240036979
4.743216924336673 1.5817374019369175 -5.921416004321123
-3.709555486501425 -3.352491326247866 1.069857452829897
4.750880305325365 -1.5585686781375943 7.959926576047543
3.855242713831286 3.1838818472818335 -7.863361332113912
4.909794678391757 0.9454714252879265 2.5255550922488013
4.977746979726752 -0.47120590597020007 -4.651525553432833
-4.17431422859339 2.7522900866301816 -1.3723607062504861
-4.562039331965227 2.0464107929744375 1.434368931228068
4.794146862820409 1.419914031802358 -3.1857182800086337
-0.0012332436632767703 -4.999999847911004 6.60596771554793
4.997184320621352 -0.1677762371020146 -8.963697879180286
-2.952367747563656 -4.0352849568705675 -4.487963183874579
-2.6198271974897525 -4.25869762430875 -5.278015710481854
-2.2939314964143964 4.44273320037992 1.5524268452056855
-4.162648711763021 -2.7699017496037044 -7.806821765847745
-4.9987876586856155 0.11009969742183268 -4.1069892224109905
4.651067860730706 1.8350933913231493 -1.9049875468746649
2.3501801239736224 -4.413236157841468 9.469787224235375
-1.3958098520227888 -4.801220142525868 -5.902330339117878
-3.4402329092362787 -3.6283326101954443 -4.972115832931278
-4.884760765251257 -1.067292024828235 -6.632162566159218
-4.581760542908709 -2.001866710709006 3.6296318759768997
-0.45385087318436634 4.9793593347849265 -2.57409795316514
-4.923333219126917 -0.8722327748034846 -9.460104717807683
-3.6840562162957715 3.3804925373638213 4.608705205824705
-1.0934938366785487 -4.878962105729663 1.2048420739101946
4.598258508829746 1.9636747912968784 -2.3595966220125186
1.4751860214983816 -4.777428827515464 -5.472837162191205
3.3607373238372507 3.702086525213483 6.576988866847596
3.0697281111303276 -3.946741608432991 9.37438083255526
3.736548082047104 -3.322379934707966 -9.01667455172385
3.5690276854097203 3.501719774736256 7.076147969623431
-4.350723745517358 2.463981105891725 7.5362950083214955
-0.895869173288641 4.919087153563263 -4.193761504266131
-1.6112479749518718 4.7332737046587 -5.603572391061933
-1.1757073546682493 4.859805779676693 -9.683946442835037
4.381115207831181 -2.4095289032734897 3.610394688804652
-1.0326748332600038 4.892196100807022 1.9476896115157043
0.89877047554789 -4.918557881359476 -9.680590353844881
4.603336563941036 1.951740884206594 -8.751168952025788
4.382660526555217 -2.4067169981064978 6.79532806836356
-2.253588429330046 4.463332744843223 -6.587638004975609
4.916497703950985 0.9099727067581144 4.688859210339004
4.704375331976464 -1.6937687964687895 -0.5106459159698034
2.435267676845696 4.366860581941055 3.3005131473098785
-2.1612332004057744 4.508777112861514 -0.7115321184286749
3.8029841077294266 3.2461225910857734 -5.495068026371102
3.1122151898895605 -3.9133255182543514 3.7116085163780035
1.5020719132369686 -4.769043925931552 -7.3740953131399545
4.997018065363685 0.17265704280153044 0.7683398398965835
-2.4161525233875967 -4.377465817539613 -1.101527724679963
4.992338656528418 0.2766852698139859 -5.18159554767638
-4.997583548171046 0.15543062455673604 5.748454668889092
3.633707274447578 3.434555494329179 -3.1289611473974936
-2.6856678658481754 -4.217485994564832 -3.1105343838933592
1.5852253917731243 -4.742052346534963 5.226543565332456
4.138728108848735 2.8055177135468905 5.334313789421136
2.608043884982671 4.265923943766988 -4.081889846377833
-2.5568568056346614 -4.296799189568872 7.840502271609775
1.0247936954252232 4.893853071130836 0.20036125796125148
4.40236420353571 -2.370482950672161 6.321371547000524
-0.6641658483045992 -4.955692053179438 -5.7820272614424955
4.485671105971502 2.2087903316187347 5.568840085298428
2.645876687334054 -4.24256249870549 -3.5498353485051197
4.855402423636705 1.1937618290692713 3.692230442654248
1.042734927374382 -4.89006174513508 -0.9374675275468611
-1.742782093558056 4.686439007858035 4.1867632689084555
-3.493383350141035 3.5771878297005033 -1.1317585073307068
0.898854269195422 4.918542568967881 1.2471667980268801
3.9203214438350455 3.1033981015988115 8.26566497670635
-3.432840194130552 3.6353277983645036 9.267947418729644
4.661510432576112 1.8084027446849547 6.915253969520215
4.580965882746845 -2.003684501389731 -3.274056770572116
3.9743984495222096 -3.033835355525322 -8.08170476514035
4.305546354527382 2.5420996418346724 -9.745800260686133
3.6516424820171904 -3.415480520150471 0.4447096104501096
3.9333954428889006 -3.086810698740826 -4.050725801015023
4.7185598698146265 -1.6538418167935462 -2.6044610307968767
3.5559590959597576 3.514990029553578 6.1335953137068415
1.4025047225767486 -4.799268746710265 -0.39011645749191004
1.0019771399494295 4.8985754879371575 6.218356510396845
-4.969488987901228 -0.5515244320321976 -6.4798697196801385
4.999453030531179 0.0739553616217377 -6.0382315887997535
4.0046579582216655 2.99377932347257 -8.650011533635034
-4.618521497888308 -1.9155310421769558 -9.038963334172134
-4.9069733317224085 -0.9600066258964489 5.810632953236761
2.30011464104176 4.439535182658804 -6.880603467698581
-4.962274081667778 -0.6130545965965912 -6.572905670135594
-4.452268388073611 2.275369464627758 -1.9771346141843118
4.9618919035988425 -0.6161401926512002 -8.764650000431214
-3.1417838118790153 3.889626521841778 6.652845914518608
-3.921932316017158 3.1013621053627856 7.361568604955707
4.074924575440583 2.8974108622130865 -4.799327065445644
1.5096457525647209 4.7666518334952155 5.220390394560571
4.647540451717485 -1.844008608887072 8.348455317438205
-2.2659484591242447 4.4570705155508215 8.451694878418671
-0.4173281557645224 -4.982553282244575 -6.597937929322257
3.797429593808369 -3.2526187111415936 0.11733041801632638
4.989773685072753 0.3196225457559009 2.9996178390317763
-4.894564280836172 -1.0213914532453665 6.332304892149445
4.233247196670143 2.660755188265989 8.76104286504549
0.1244056002615665 -4.99845208505829 -0.07659941637185419
4.567588363587664 -2.033995216518114 -3.4931222560157345
1.3408642073551786 -4.816854074749802 5.308922641837944
4.658925820667554 1.8150510178827353 5.578485434843667
-3.316014948885298 -3.742197864727256 6.949281993433857
-4.935933743814939 -0.7978458978205283 -1.80588228356614
4.867751080782696 1.1423657100678792 9.44282413254735
-4.855419037727305 1.1936942523423852 7.096054240298166
-4.9967331898100165 0.18071366813558265 9.92374604345731
1.3917126921374032 4.802409372652821 9.601882505334554
-1.0315824990763047 4.8924265500464585 -8.294701731866494
-0.3328400198712917 -4.988909452091917 6.142022567548452
-4.76553847723595 1.5131566415885924 1.5404589922736776
-0.37905619555919307 4.9856109355432245 1.2500933193543702
-3.919778309050032 3.1040840851853337 -8.659229755657197
-3.6597013602115833 -3.406843987338646 -8.003090891007167
-4.612313977822755 1.9304299443338615 -4.786843535545751
-4.596132582568908 1.9686455454063991 8.261187584193763
4.645159426216447 -1.84999835271075 3.2943383712930974
1.6468038344066924 -4.721020772140641 2.816929352132389
-4.621358672318606 1.9086759865900804 -4.332790356668332
-4.089889186487921 -2.8762486753146312 8.652508660247314
3.0520302075639085 3.9604433605490947 -8.806362980819012
4.958170640699192 0.6454021209359031 1.6450210661418634
0.34123799080159545 4.9883420726363275 7.367461612755363
3.44772934368083 -3.621210070228204 -3.560750274380487
-0.49400508340947424 4.975536049268018 8.30233750372388
3.249978841774724 3.7996891357078963 -3.4347405875180463
-0.16293542012950857 4.997344499718547 0.7781122477501512
3.0324747054026187 -3.9754367258319308 7.419457028478895
-4.899250048499885 0.9986736014704072 -1.6322666875253553
1.2884540781430447 4.831137142383412 0.4127644766616392
4.996130855888233 -0.1966633439192707 -1.049628434734398
-1.6779145887669777 -4.710053357744787 6.92766175497356
-1.0338595660985521 4.891945870263337 -9.829553347527806
-4.350773234617438 -2.463893719488833 -8.533675241313913
2.2569741924408557 4.4616216216366835 -6.906915039439818
4.98172653250816 -0.42708401433935667 4.249081171053389
2.307707947466526 4.435592861072783 1.762722564464445
-4.42972244823267 2.3189564531537803 -6.4490908743838045
4.959984414515104 -0.6313118150068613 3.68323097785024
2.5963359179161576 -4.273059770391524 4.356986456488549
-3.9826649814207773 3.0229752969160435 -1.7169112877572204
4.945379335443895 -0.737036789152684 5.8234947574465075
-4.903630394876009 -0.9769385602217563 7.4572294803882535
-4.663383146080421 1.8035680283407864 6.068687234724177
4.466823770193352 2.2466609459452584 -8.934882496565324
-2.6973132590629505 4.210047646106063 4.795240966633713
0.5025825590112253 -4.974676951459032 9.189362416567583
-4.76895413349384 -1.5023569724376493 7.324282057472235
-2.41719668529189 -4.376889327434942 -4.728105181545921
-4.518034289466252 -2.1418137545564457 5.287122174436728
-3.267569055887507 -3.78457295675568 5.907058360930028
-1.7909075288830412 -4.668259870978696 -2.8340417117226906
-4.378041543214673 2.4151091581720454 4.237014629344841
1.8591241601013144 4.641514554251401 -0.5167232508060309
-3.108763765782818 -3.916067906530201 -6.52803183052116
-4.8420766551098655 1.246713145049838 2.1575757111626555
-3.8923326964798637 -3.1384305281324605 5.680539793096759
3.9229254982420776 -3.100105729687642 4.778540185598532
3.3933917587653357 3.672178150845013 -2.366778831149185
-2.2022553860773053 4.488883069817423 -0.38299026871513675
-1.950003951466447 4.60407260903488 3.30779596892401
-0.5086072792695828 4.97406459904513 -9.836095626111877
4.4477947338762975 2.284102012893092 -7.187448605603355
-4.039000892057651 -2.947282102880127 0.060026277514960924
2.7612118739750007 -4.168418043697089 6.833942982492804
2.1869765122195197 4.49634670983012 -4.921015917814167
2.486795810900123 4.33772366511395 -6.858928153884609
-4.240913555236138 -2.6485188723160684 -3.488529871642254
-1.4882995165991826 4.773359880512953 0.37404672394078986
-3.016683505941569 3.987432836422462 -9.556743683305717
1.1464182947450214 4.866798238418552 1.221573115287507
-4.919916467780682 -0.8913035117514441 7.291108674247624
4.676422575846893 -1.7694835099851893 -4.301049901938578
-3.568105579774122 -3.50265935705783 -0.151340873297789
4.744195610409268 1.578799547179258 2.915049501801372
-0.6364696419950698 -4.959325195509836 -3.2655469658255125
-3.0113059697415174 -3.9914955037678674 1.9834576185557218
4.923087480667151 0.8736187141415651 -2.881466591904984
-4.108409032058051 2.8497324831120245 7.319072767155063
-4.451417325294376 2.277033990977971 -0.5553820438159427
-4.721377637888001 1.6457804229152593 -1.653038532631932
-4.99317686853312 -0.2611221161559986 7.909746798335583
1.0029780328598736 4.898370654166601 4.799072085922118
-3.9497627565087323 -3.0658398795919757 -6.3874109858214645
-4.0395085663002375 2.9465862523922492 6.978131507152096
-3.1553978880681486 3.878590487274348 9.166776243676729
4.699441895775149 1.7074091098015347 -8.319408449593507
-4.8138221377970805 -1.3517087059180848 -4.725720790737071
-3.3951081591381183 3.6705913130929977 0.8141200808731099
-1.3370526383896473 4.817913473919523 8.948604038341859
2.3588441857939526 4.408611358142841 5.565032033040767
3.491828256758632 -3.578705831065467 4.017012850405894
4.207859544264832 -2.700725468413878 -1.3335943947949591
-2.8980990205719492 4.074435183796633 -9.042365801943394
3.7359991765582015 3.3229971641210354 -4.899958244107115
-4.864607240497229 -1.15568005767251 -0.12648602172975032
1.4214436042703393 4.793693573840421 -4.9722994339868105
3.9788804615898563 3.0279548002535464 -0.6440215081426253
-4.898423599620839 1.002719421711586 5.768783915633618
2.635856225695043 4.248795353681404 7.123813226996496
0.10417673575406117 -4.99891460296409 -9.771214712844838
4.982283933816363 -0.42053157174622274 7.9949478341258775
-4.890668927679826 -1.0398833779934464 5.591895556404712
4.9935605376418595 0.2536792401950558 -8.486025426970018
-2.7541742524666146 4.173071313439295 1.7142943033809601
0.0841538137843347 -4.999291763402647 9.816016541238405
4.999669222436581 0.05751231364142111 -1.976872074179914
3.478856228257362 -3.5913172156069644 -5.401991126437835
4.999344968053357 0.08093139316470022 0.8746375855698467
-4.598108645185261 -1.9640256839136725 -5.757659315206498
4.221066126578334 -2.6800374540392107 6.553376051488456
2.849831561495824 -4.108340306145813 2.851090797839003
2.187294799461686 -4.496191884278057 -6.014322817557394
-4.95422113131932 0.6750503551507201 -3.008427309547221
-4.549367384377502 2.074429174968912 3.7402898395763184
3.9146668969432956 -3.1105277825437194 -8.305682817524628
-0.02282140395382374 4.999947918080904 -7.26031841386728
3.461272623674395 -3.6082671498382943 -6.500650338610172
2.1912164416958233 -4.494281978875145 9.847241117983518
-0.9661113083344712 -4.905775060060159 8.112703553238646
-4.799277504888755 -1.4024747523819339 5.340006174626348
-1.1712595504452876 -4.86087965963885 0.3649165578973097
-4.984968538861244 -0.38741278575132104 -5.086322441327271
-1.4198650827969308 4.794161360097725 1.8508196640886059
0.5689711994545739 4.967521693379026 7.383289180364802
2.998310231370586 -4.001266768969355 -9.455895733358723
-4.998208879796905 -0.13382075294726645 9.152732331507174
2.5723225114388 -4.287558384109211 0.8711058664400753
-4.994994386620464 0.22367627864853556 6.728816811855133
4.612148392343046 -1.930825524745168 6.058517511194015
4.969592833703112 -0.5505879286786701 3.41788758955024
-2.0359845148311715 4.566701988893919 4.343836488982813
-4.933555506514068 0.8124223434548782 4.061191060052483
-0.4297506369597488 -4.981497203656015 2.9334959484557324
-4.996814897889533 0.17844011944967472 5.246074895289654
-0.4546889464037258 4.979282876280306 -1.4916968688633894
4.161951405677008 2.7709493854603657 8.92524351562733
2.9918364901524837 4.006109636067399 -8.335728609146907
-4.348152259952829 2.468516138141921 8.499846884675325
2.625675379507935 -4.255094452705587 6.778102722522625
-4.081549015731439 2.8880716113319838 -3.083780460772707
-0.9196248758032016 4.914701424074909 -3.0790312652472807
-3.4985595113993235 -3.5721256060219 4.62933485560619
1.2199337862574733 -4.848892817659254 -5.770696530429948
-2.4958284309498584 4.332532797713408 -9.315690421431484
-4.280180599199625 2.584580050653324 6.773732221160476
-2.4923872888799985 -4.334513306269738 -0.2395851325758951
-4.793369206721676 1.4225370462847042 -1.4184853316124357
-4.546737873423723 -2.0801862201193235 6.381787598481317
-0.06206477794818123 4.999614781494495 -0.17829133186177337
-2.8154080332131635 4.132006486746939 7.622343816122651
-2.243021692514989 4.468652334530757 0.3870236739335571
0.12202511709205721 -4.998510765297867 -8.817045001911648
-4.692549919875706 -1.7262604813510927 3.692993518974143
3.9193492576947198 3.1046258061492447 -2.4686563833275184
2.0860682232311003 -4.5440421837858676 9.515458964879691
-0.8083634633241227 -4.9342221789419485 -5.212845578126037
-3.145962116633651 3.886247851167745 -3.940372589548442
1.7054738024212908 4.700144583867039 -5.537703650833102
-4.165371941809094 2.765804871351112 6.273036293216947
-4.946373788153135 0.7303330390113805 -5.24416430728534
-4.955578925256222 0.6650094101261982 -1.425713262415906
-4.951913620997342 0.6917741612556756 4.5096681629905415
-4.997178544151448 0.1679481999677633 -3.323174924238474
-1.6565356343168083 -4.71761483084817 -4.7165042001505135
-4.857484896512181 -1.1852596678180047 -1.1913148205643864
4.761028210297608 1.5272885715379247 6.232939519096792
-4.614440746040281 -1.9253406455178812 9.04645413956954
1.6218535999193004 4.729650187955638 2.9608940439824565
3.760974688756816 3.2947032325431937 3.839517659668699
0.06853374306527799 4.999530290543449 -2.122612109088829
-2.571909894108914 -4.287805907056041 4.689461654671037
4.7585552557681785 -1.5349761815093557 -2.2173603256348056
-4.905617265148079 -0.9669122234624408 7.623533034388217
0.29850907116390757 4.9910812790850105 0.9877205649949232
1.4247446906599393 4.792713486787658 -1.117101770855884
3.315548606247992 -3.742611045728235 9.445966442018616
4.990889470552069 0.3016990101615978 -4.9226676759113115
3.3304861903591676 3.729324568313528 0.8318611019242113
0.0797869436794091 -4.999363363831269 7.813508317906688
-1.7526570924029572 -4.682754864014303 -7.533657071119768
4.845479374431498 -1.2334219196847989 -1.968243091010235
3.9451669137732304 -3.071751621220212 6.694946591265982
4.188116587217247 -2.7312413756158134 -1.230907189314891
-4.327564013844543 2.504434009128152 -0.17171355523917953
4.419615224620409 2.338161941847377 -8.80438119818351
0.4904983845837147 4.975882970360212 3.2807334712052683
-2.4066464487526704 4.382699267655284 -7.6111604134872906
0.8791376342937195 4.922104937927314 3.163252633673661
-4.969504403238608 -0.5513855150365156 -2.5418248675125943
-4.8915805836439334 -1.0355864974581679 -8.381570905646246
-4.01209290697189 -2.983808054454216 -4.787387733665902
2.556580563025678 4.296963558695757 -7.32986604088487
-2.1282756532431333 4.524427338770346 4.732515086723453
4.999375043952771 -0.07905169133060339 1.7816730896373514
4.98761915917701 0.3516463038486515 8.407418058500088
4.9717375035737765 0.5308730503218171 7.316317745236841
4.928712194989322 0.8413061862149511 -5.0303706791522185
0.5872099412775567 4.965398723654004 -9.918758088437627
-0.5315763147964077 4.9716623599705025 8.732292873082425
4.806101802326205 -1.3789073448483766 -2.7745189680741866
4.805384545399883 -1.3814048540641375 -4.842024603952638
4.086753323846854 2.8807025653521903 -9.238231303450508
