18.184959206695407 20.497327346889147 7.868604289430312
13.186064429884107 20.133009388718655 -9.498489172131483
20.798618975653962 17.404726281698224 2.3274335373579724
20.945747034369653 15.265434637337298 1.9263178427917875
16.0762326474516 11.000581175430236 -4.274871535046905
20.36416166058245 13.559898977439204 -7.6238474667273115
16.115489866243035 20.998666031132224 9.921391408879298
20.631170912330326 17.88474294819891 4.085768815126157
15.29841044057512 20.950532505711482 -8.276853268030136
19.072057301258265 19.944928888812292 9.52219077405356
15.52184419343191 20.97708418902526 -2.6268560401410834
20.564597765512108 18.0406977333946 7.505108715940473
18.658102529400452 11.765086666389156 -9.156373166916778
18.502294399037684 20.328801536285145 6.704627268436422
16.212401213355772 11.004513464679842 -8.296010252349644
11.795286819080818 18.705621382641056 9.575139352992956
13.110359958349392 11.919561245443148 3.6307706157758126
19.851446261690988 19.188473254287466 0.5729785083413486
13.32918918336079 20.226910169582858 8.746692453834196
15.641207616644511 11.012889812161147 -4.115219585509962
11.631319906090692 13.567997895337966 4.5676718679851405
11.522639942861144 18.225589117231106 -2.948128957974239
20.242026215800706 13.35326359747338 -7.0267025367162494
11.941703007971839 18.92065498210507 -0.6677497968541672
15.266528168275725 20.945909327117413 7.619872078617888
13.463517127246515 20.30885769505425 -4.1806432354809715
20.243524917841377 13.355667140532546 -4.693690935544539
16.896732083702094 20.9189299212389 1.1508069361459068
11.625029998233712 18.420668809161032 5.09385215301673
20.87021848904904 14.868199722157268 -8.508252715697113
11.42728509638885 13.977556327040855 2.6651997460182777
18.505106775070832 11.672825396925354 -1.28362875578501
20.0243402903414 18.967268984695338 3.7275719672409444
19.00847787031836 12.006372463060092 -2.1938347977774386
18.242874697281245 11.531273884841948 3.8667317705122954
14.860015984657519 11.131690596853602 0.2869346710897105
11.20297152339212 14.589851853664628 -5.643574527093264
20.640588456151 17.861434602836766 3.55901971365639
14.406668427722675 11.260665183722057 -6.135073112159006
13.562661380200007 11.634294965022091 8.209880680282634
11.008838193342182 15.702840413649028 -6.594915602384866
16.877814611203434 11.077658940264524 -4.5958394408747445
14.691377036792577 11.174287001886018 0.03538664552058712
20.998197180056323 16.134257026918505 -9.631160151000879
11.000297049429975 16.054501431737 2.114932882188201
12.745667664519452 12.204038850271814 -0.27729670969843667
14.215421154507325 11.329317143690869 0.8200551878943152
11.260625792357352 17.593214398607927 6.511050822384043
15.59473581563647 11.016450969352046 -2.640969976791691
13.777752368668578 20.479019475849807 6.458780085465243
11.00177136159462 16.133080720708598 5.804371500904114
19.15959179209601 19.875174797002003 4.437156041192804
19.83583534913434 19.207236688230452 7.640820084832313
20.34322958948166 18.477167078146117 -1.4439558503583747
19.626857029298126 19.441788501496102 -3.9104681296110027
20.706838781711845 17.68691098845593 -2.297980516916751
11.42701772651531 18.021839045620293 -1.3719488569399836
20.39412391347561 18.385723167725416 6.017240684957823
11.881339548240735 13.165103867314684 -8.216002538556841
11.614563140756893 18.401654336825338 3.2854778705541943
19.682107854188025 12.617385367777336 -8.423068038265345
20.82032922979737 14.671682975957507 8.038987173180846
18.27683356527384 11.548480156615899 1.7599917515800119
11.056235368892873 15.252209071856171 -8.795902038320122
20.66897107451299 14.21094742800525 0.1383884507763078
11.246375803631997 17.550179666911117 -7.042694487204155
11.190491470870235 17.36697758146505 -5.407190226562914
20.343207805227266 18.477205272199495 6.632255677402277
20.89655164213334 17.011821138305226 1.6615453225181493
11.542970007479411 13.733971834735517 7.780817526787466
17.19506967693677 11.144919314031306 4.853855657576764
19.65458419539591 12.587667314173128 5.677929032060158
18.53583283816087 11.690759716968085 -3.0336895044540384
19.213240070739225 19.830807780063594 -6.703587647843829
15.742149440864933 11.00665311748185 -6.2797755731477345
11.30612597894767 17.722656864987925 -2.9048856228722304
11.017267328328318 16.41518083127184 -0.8755372706043403
18.14051080150749 20.518651735709422 -7.2909593546075495
20.996171052323017 15.804360494967147 0.5785120828970172
13.398132351960285 20.269693752727974 3.3641670727983346
19.258867818688547 19.79206810860725 3.7093444483119864
11.625202960965002 18.42098138515161 -7.621204315562064
20.9626690160815 16.609849355845096 -8.194146629838713
17.73097594069224 20.690812540780605 8.108990604434968
15.16319169825251 11.070522150762164 -6.152633087973691
15.836721370438683 11.002666702217214 -3.830416568721504
12.901531724805485 19.924218947461156 0.8838096679238063
20.998086438392424 16.138318308107543 8.08143919364753
20.52587416126968 13.874802814713076 4.364837278616861
11.656466893743197 18.476634844875427 -2.4426493353415264
20.530364045645143 13.884390959102845 -5.616401297098363
19.31573216986455 12.257551579817656 -0.6647796105491306
18.628718518379866 11.746784868934238 6.842577256767527
17.134187201427345 11.13033682970594 -3.897353170122704
17.405033486310757 20.798529035271688 -5.087307653284963
18.30154373735067 20.438794478804116 -0.9997714739241381
20.572228489150262 13.976456908538218 -4.197203184476939
20.405201445727638 18.365206169144486 4.93802103212926
12.028745598021557 12.962050284358407 -5.626011155811663
11.77866123702236 13.320391997290944 -0.753880741049322
14.375213410956203 20.72864341434871 -9.490736110034408
15.26746693022069 11.053951546771938 -6.77699111181713
16.386590519373975 11.014967625949641 -4.899515120294575
17.257888530654487 20.839185514572456 2.7006611088086103
11.050696345861784 15.289793453188373 5.151544986095759
18.870558547305322 11.906115093643647 9.168304867032521
12.547629661827447 12.383214265662627 -5.233292376812873
11.16423901446497 14.72900995646021 -5.385670544554282
20.428013180010936 18.322218611080668 -8.294693893713678
11.243465928850785 17.541227961722953 -8.348516795096824
12.520109992621267 19.59031552047249 -3.3095827732327248
18.467502308654403 20.348727671030368 3.132478294906207
16.674934992566477 20.954236848981818 9.531446474132245
12.039623359493808 12.947883215646412 -6.118042587633679
19.640597006897227 12.572748414053768 -7.755363151325085
11.112312186715052 14.946193642140164 6.339292229439462
16.551647811898263 11.030524706608567 -9.979729569968821
11.578935050607047 18.33541960111006 -2.590037544342458
11.579475684182224 13.663557239463424 7.681448641415088
15.732931617732431 20.992862353319286 -8.45673242850512
11.027852886321 15.472977154258395 6.9276119830239296
20.810401932268313 14.636169640303724 -2.5372726884245944
19.956781789306884 19.056775731356392 -6.067080262960678
16.531520507891432 11.028331673402697 3.606270960389697
17.723083132120017 11.30628244141134 8.91449126335522
16.91796230295291 11.084987771087707 -6.859241982770545
16.78561826946682 20.937894686471143 4.802499756741586
12.662419973050039 12.277022755414064 1.0766536060576808
11.944671885849164 18.924775869460397 -4.162372424778386
20.710153713861263 14.32236714630437 1.27351996095474
12.140870737702473 12.820830086818425 8.444818479321995
12.037660294712168 12.950432151943568 8.264296839127628
20.29283997989856 18.563498567775014 3.617845769770007
16.578942112924082 20.96636950194838 -0.35837458225815766
19.515711649494186 12.444754354814442 9.071580722266177
20.16304674612316 18.769303484559494 -5.651055784611616
19.754706045264612 19.30184531946204 2.3616064489900808
14.179288934755185 20.65671678512824 8.679177395485503
13.587366588476105 20.379406354929692 6.861379425467565
12.59652773804483 12.337162771552393 2.2055427765020745
12.166377714114448 12.79011835589509 -7.9615909799271005
20.55116555155332 18.070481133059257 -5.147824168778827
17.448943678353977 20.78545318825271 -9.269474466507067
12.663838237191282 19.72424820499024 7.697598432431764
11.883811562852795 13.161515765431197 2.9396209705941523
19.74626533825407 19.31141903349548 -0.16068133874351354
11.632756512357913 18.43458093306585 -4.007650370600626
20.937969260775038 15.214850600432737 2.5898530883198045
20.728722161452104 14.375442608033884 4.246131105262695
20.51271990309755 13.847011594042545 7.099677390997343
20.75389005601885 17.549364171292563 5.646120053023251
20.07876629170273 13.107999734151196 -7.0571525149860115
18.280718263766286 20.449530784399958 -2.670772008798723
18.52094768647942 20.317965118204878 -4.4896886655759545
20.079852281599557 18.890468017523613 3.416984590105516
11.096268980228121 16.976433349352142 5.49801624815518
12.523268662654946 19.593374348425566 8.136113180436816
18.741817672642156 20.181200288193228 -1.8846812506062847
17.774923107244447 20.674360701033855 3.7113157585444014
20.70506056902639 14.308135631383811 -6.6116417752309475
19.371437285863486 12.307655131560779 -7.954890341045873
16.690545213748248 20.95208514746762 -7.274706762221051
18.44396990925796 20.361996226802773 -0.7889903512265999
13.619160413314109 20.396771868367672 1.07699738378086
19.491494720870243 12.42096876038568 4.014328424010669
20.824682727937805 14.687583688481952 -0.5706121227917009
19.845255202463633 12.804063137681478 -6.806066383735034
11.660918322668866 13.515574473354203 -5.890090619658073
15.817611262051907 20.996672327486536 -0.10798267981171072
17.50935476283591 20.766743983045927 -8.31959957343522
12.33087082540655 12.603311745221948 -2.788751067293238
12.439204458836048 12.489909529082345 7.745165277209175
17.21789503364442 11.150594707902396 9.827872523353257
20.142139171030244 13.199520918161166 7.0413735639341795
20.24790509285198 13.362709283730325 5.074921224118496
12.247405579300516 19.30424501418026 -5.672888946109957
16.628883685110534 11.039707134593584 -8.522753964283375
17.40513979244635 11.201502092979114 6.643090756724533
11.01389402238432 16.37248782528451 9.976726215307586
11.298164010399406 14.299194800426399 -9.178507101507623
17.482643491413324 11.224880286592837 -2.0590521555640056
11.056612833726016 15.24971783686558 3.5045185899199076
20.99494801107147 15.775290483750362 -6.901735966460318
20.81335034014642 14.646612212626286 3.7186148234764254
20.966422573764127 16.57848666260003 -7.128606444769201
13.965545229098856 20.567383691475634 -4.545321973996037
18.94474943162313 11.959152219526793 5.5819820110849925
19.571434508578463 12.50073499846969 8.357524011244156
20.9893851826588 16.325630924613737 9.593309267580917
11.861450016930728 13.194219531460574 0.7054823896962166
18.88948016589741 11.919448031101002 0.7216725634165329
16.623649199037114 11.039046293650749 -6.520367142988617
20.959901435003182 16.631963412749002 -0.7437211768506771
11.711616307168866 18.570946382766472 -8.120966291956497
11.37832170504446 14.092098079581433 3.4158510082700353
19.728408957536466 12.66848883457344 -7.278828677830562
12.905518751504596 12.072636278276441 1.7270216198899924
14.26553210679398 11.310477516053743 -6.624219660448101
20.862149332121064 14.834022353492696 6.867037185744852
11.772059420257706 18.669179359684996 -4.150114089262901
11.0332307401146 16.575502492659616 -1.962212968138184
15.754561478039427 20.993972359949325 8.21377012633273
20.375411150551695 18.41987133203976 -2.4607843777711214
12.602515769300048 19.66839214127186 4.865988144556976
11.693562124227487 13.459410930096738 -0.985409902581635
14.49241719575846 20.767304698501576 -4.313672052402597
20.983990590159543 16.3997971950891 -4.444198814032987
17.787085663478507 20.66972427787654 8.460922958519614
14.420927933963753 11.255895088611128 1.4723498097181995
11.00831736808594 16.28827851506405 3.2386480851862345
15.473301367708448 20.97218146800197 -2.291447240750715
17.22491368024597 20.84763720547921 0.6955946904287114
13.660941420028248 20.41914074899867 -8.502937911568688
19.91660805390993 12.891916772020432 -8.576251634763118
14.791832337951423 20.851837888922102 7.119371027093674
20.363064125309794 13.557937052728846 -7.919660523179434
16.60344809593473 20.963451459973466 -0.5321067253315874
14.377800986568172 20.72953172743569 -8.524301194796651
13.837197276176843 20.508024442904357 -6.09674663141436
11.053113078936402 16.72684922109742 -4.205627407737966
20.619290608732516 14.08632440782781 6.466324937417575
14.115833597448379 20.631405506700496 8.32761647904206
11.785589282200256 18.690491089317085 -2.076713634440372
20.99905905486353 15.90300223720645 -7.883052590826567
11.332313872168742 14.207597642254498 -7.966940068519683
11.053633771747771 16.730384238607197 -0.6093591771289582
19.96265539504461 12.950842375323333 -3.127061076780957
11.664455453491886 18.490592998714114 -6.884117549206723
15.288239388995578 20.94908040272358 1.0339880211665466
20.87224598493854 17.123040098237936 3.440196775125319
18.093547010429393 11.45939861746022 2.833527429111708
19.549358763313954 19.521654777130554 1.2966918656266184
20.83744723029347 17.264556955667096 7.47318960541034
17.160674420904236 11.136581974715867 -9.120486586653772
15.68040191642918 11.010224748049481 -4.267041458724707
14.703014125485502 11.171146342939158 -7.235964590188598
20.96349276198152 15.396891716391607 4.112723492402688
20.764353177108276 14.483115428327434 -1.2765359022624008
13.659704978650606 11.58151392295424 -4.350506634513707
11.697443748318136 13.452842819707957 2.2415224853321813
12.176587635237736 12.777963704583229 -1.6626788394271728
14.745553720476675 11.159921020087577 -3.4253942541113
16.374991772484528 20.985918287594465 -4.61660857803361
19.509527362002032 19.561350543734648 4.40095974495766
11.006418083515172 16.25325805684266 -5.574815728057438
15.763644860124467 20.994410500535015 2.35476397178436
20.754671020218264 14.453034102025324 -3.2549584020933846
18.51545083438686 20.321169644874225 -6.930773525567703
15.49681922749938 11.025383521296774 4.0380732706894324
12.971249371326767 19.978274705109175 -5.6812711921155
16.57390510466737 20.966954089866014 1.4159660647294832
20.587240420656155 17.989277588246132 -9.215502990379257
11.037213120384765 15.391110529308582 7.059576868974251
11.029006449058041 15.462205321248485 -4.869437383184105
11.793615035810532 18.703021556155402 -7.0021250332052904
11.041500101250282 15.357132397690592 -3.5442995042314385
20.999102944728108 16.094708753612167 2.5022920796931523
20.78005934326572 17.4666399267912 -1.2733450714291
16.82056272628726 11.067791892850828 2.5125331097281247
20.236088974075635 18.656228567671622 -8.971543442750889
15.961851908958028 11.000145529802907 7.1054608204337235
20.890021245381625 14.957075161041642 -7.7562080226688135
19.035750846390936 19.97293553919979 2.4067873474110097
18.955920549981908 11.967316811080412 1.9021268358194199
19.105615444258806 19.918565134380337 6.319602437232483
19.269272411649354 19.783101624121194 5.82525839280661
14.026239224632013 20.593938223530955 4.9081763803153535
20.993379838177496 15.742788430115406 -6.5532809029634675
12.959010548861269 12.031072795066285 8.747984820595935
14.640072540866921 20.811506760454137 4.600965162383627
13.82898510139376 20.504075300217544 3.094695115197343
18.909885900480187 11.933974416437273 -8.81412132323444
18.79536889345972 11.854410446091197 4.9071124720640995
20.695165789216276 17.71913298257381 8.994833058908192
20.96518899258528 16.588980702493718 5.764015486224194
17.69456104827613 20.704090013346395 -6.8543122306129645
11.016795138223507 16.409474426023333 4.7460692118681
19.49112013233926 19.57939662814496 -0.03193816783247705
11.009331273872895 15.694671216461886 -0.40478629672130495
12.443251267378464 12.485808990251796 -0.06414567918228187
17.39007876977507 11.197117426605079 7.7030011280063135
11.687746411781646 18.530705235877527 0.22265088895300167
11.345512199801064 14.173598259473211 -2.643607615806351
11.447036225883396 13.933476138153278 8.722923371985203
14.073577967195847 20.613989396555514 4.0098717024357775
17.747918951546573 20.684525519070668 -3.7750000687929113
15.156009520695065 20.928253247433883 8.478900055474092
11.811596254417854 13.26919900688581 -5.561372833562597
16.017832067118647 11.000031798362887 9.318428745414305
17.817920761098186 11.34219320856176 7.669521159907799
13.865571281264812 20.52152784406316 9.20532786491325
16.670837985808895 20.95479327487998 8.07423701754918
16.95057264257446 20.908809596143346 5.177823461522902
12.78102009179895 19.825985931834822 -6.4972891158440955
11.701555637985692 18.55409006627946 -6.434937178426288
11.3568910236291 14.144861451658134 -1.4447171940098684
20.074119235556623 18.898543160704616 0.43995541787523074
18.347790621187574 11.58549219062151 -8.254266005238701
20.466617880973878 13.752929750683258 -8.076472447673744
11.312807638139303 17.74075494051137 -0.13129019801412412
20.8288146431837 17.29713111973102 -2.8730598081569436
20.592064395816795 14.02188357656286 -1.6245852723448468
18.766771661329148 20.16472983206185 -0.31938203257745457
11.133205182576729 14.853567182473393 2.117321301056281
11.351257187795827 17.840975357244098 -2.976301840833406
20.4637399568009 18.252781746654367 4.00106626214299
12.531553121345695 12.398628559846511 -2.124402827838969
13.362889164171373 20.24801676545129 -5.963218333490035
16.358241859329556 11.012850235833689 0.9288872426085586
11.3950449205649 14.052080926633538 9.410265860181088
19.33039123403223 19.729409367216377 -3.511018659927771
12.899713081913157 19.922782306672087 -6.605048752251134
17.674022510364246 11.288561935587628 5.526743233948048
18.179073882675155 20.500181886751136 -8.40616949291913
20.061238418623844 18.9165634755811 -7.8602745309600515
11.290793436994512 14.319710278866753 -4.987349011061615
11.001278729050455 16.11307367225203 -7.6080931348677705
20.758245349701028 17.535936584644215 -0.19909206066007812
18.70722776959498 20.203679079512824 -1.092452660671377
12.078379906380345 12.898243104091076 -5.753625646038241
16.59383307424799 20.964610989788543 -1.9931691554661857
20.129064280835102 18.819721292030774 -3.7092466126995234
19.806904890494277 19.241523585404053 1.1846833045700418
20.636400579929116 14.12815875073954 -3.01280311196908
12.410179073580139 19.480400223571714 9.808867537232707
18.744260945802868 11.820402906817316 0.1507090651789067
12.5425433232028 19.61192377107691 -1.4578909464872822
19.240721330540907 19.807587852929615 -5.626711373343884
11.589485479970179 18.355283776661768 3.662249133655779
14.820302643493404 20.858838765286553 -8.763464695548196
16.455315561775624 20.97922561641918 1.7418835277288451
12.948879155439807 19.961143975152922 -7.365766550481685
18.96223787550577 11.971954969353117 -3.088697399009983
13.792706903044717 20.48640804922307 6.454665627029939
18.766928336096576 11.835374256562083 -1.2845550807706907
12.750249717358258 19.799884616731134 9.087785630659049
11.319517624663128 17.758716786228216 8.5837875852264
20.883076136699977 17.074973229057928 -6.444875497836335
12.644419410321948 19.70676124213253 -7.558461169645145
11.010379159448313 16.321999794304695 9.703094761195999
16.26298101705376 20.993079308870364 -4.605589875236622
19.151453683420286 12.118204064964681 4.705774095020367
20.9474228289109 16.723192472286108 -4.302658893974504
11.226490141871752 14.512181585558093 -0.2840543942827516
20.968617551044396 15.44067931251062 4.884539450861766
17.355213362891416 20.81283666261806 0.07804082377088051
18.10074036333767 11.46272218992005 4.837348113321916
13.908313409782613 20.541458709303075 4.278145043815648
12.663285237979343 12.276247242778673 3.4165500685040673
18.072675825651807 11.449833528126845 -1.8423991246740474
12.43756786786961 19.50842946401448 -9.381491942786957
11.782345285881512 18.685402895744712 -3.3917369786996243
20.91357048941255 16.925648445995627 9.972805450030396
12.626903791059075 12.309170558637483 -7.146900832198259
18.90131380218148 11.927853364468412 -1.2129490620121004
19.200865235241107 19.841153699843954 9.153723397613216
19.614020106463315 19.455265354510257 4.000326811979484
13.457558695632226 11.694655389652915 -3.6490885890293008
20.696562130636757 14.284685406967949 6.148382907829571
20.29814537618432 13.44540681806567 -1.131429233466612
20.23312511917187 13.339050596979314 -7.71637339712866
20.83925888496774 17.257606235775242 9.625848274230655
14.615670315223046 11.195457220104567 -3.8518516401668617
12.699600183511649 12.24402328929962 8.1611990347517
20.78328831327146 17.4560744871471 5.449152807268549
17.15271374606386 20.86531098899499 0.10762929685338918
20.80766581620673 17.373444356236284 9.32098322053185
15.574778068064216 11.018114181497051 6.57627285543019
11.005766379125713 16.24006361683709 8.28017053594812
19.069007283166503 12.05269784588626 1.5494947758710325
20.921220802784973 16.884073419030596 3.0554034041515905
13.399698839953736 11.729352054188727 -6.292807023741807
11.06246871027036 16.78789895477832 3.5912083493551687
11.067233780735386 15.182799029563794 1.5691933574980546
15.539678273011939 11.021234700484193 0.41147751498797547
15.377510197795138 20.96109931831151 6.282929253998187
19.088036299417343 19.93243331964839 -3.361252972039896
19.238174713780282 19.809753866463556 -0.8909718298815132
11.704488842843503 13.440979894814411 -1.6734537564677137
17.329725463814615 20.819940890808 -7.151407174201896
17.101198595894598 11.122771109287594 -9.169600360287639
14.449415543303202 20.753492173407913 -3.6300372055737196
11.806981367702317 18.72370974026317 7.576625750598819
11.328279134054451 14.218140255045597 -9.450576242298032
20.15835017263678 18.776350813879915 -4.715983025115857
15.743791723404476 20.99343141727249 -5.430602024746046
18.330080607204458 11.576118857391204 2.8516501375603305
13.05333218916631 20.039449072905434 1.835324797834021
11.658914435468752 18.480922433575547 -2.762235073574293
16.02860180097004 20.99991819302889 1.027044399702266
11.081447911752278 15.101197821990866 7.342520846093386
13.447048863110522 20.299120897655094 -2.2455977169189323
13.888859098588053 20.532447914139283 7.3635172551938695
12.107141813799371 12.862221304468596 -0.24341017467644654
13.334042210803334 11.770027297225003 2.715270576536401
19.96971032969981 12.960032911646143 -2.3090297548505756
12.226579970247501 12.71955776166343 7.133993837812099
12.12286893722176 12.842809045679992 -9.328324736986337
11.116476121563547 14.927062663180651 6.434074356807084
12.19151169578543 12.760336925441038 0.05182869457814121
19.356791409896655 19.7056647757783 3.257449150691583
19.741909389997804 19.316340470616105 7.817348912505906
20.851342694417195 17.2101545609239 -1.8066032314825193
17.49788918923899 11.229640686828615 -9.444194841526365
11.455902508653768 18.085947743626594 8.19108375825438
19.960666834645895 12.94825980382732 2.075986638798202
20.819254114115733 17.33221236429429 -3.443651641347314
12.590819549542621 19.657524935830132 3.08681731177945
19.51659110832599 12.445624249345242 3.822138519474594
13.125734452876065 20.091283119586855 6.0116225478946035
11.40698230162107 17.975901926305532 -7.219441140909845
11.021816851059489 16.46657532682808 7.839297051040472
20.2788259670927 13.413177945174189 -1.6074514429288023
14.45178482257705 20.754264376788193 -6.018579552485455
20.091005520435356 13.125339353633642 -2.2403747291370752
19.241803452082657 12.193333429617851 -1.5264491875554071
19.548077384693322 12.477054233708984 -0.6840518722499915
20.993632166771423 16.25226530277814 3.785222569437998
12.478083831662806 19.54909939325529 0.17812233061643568
17.31063680139242 11.174833559882536 -2.2734713216556752
18.669890491628944 20.227491544960127 4.068923815197568
16.169878838265287 20.997113284718452 7.9947682365579595
20.794814380229802 14.582341698736434 9.06730998731426
17.1697713049463 20.861238020723142 2.4309153298721586
17.429627385047077 20.79125928539914 -0.04587774790464394
17.911255268878346 11.379707444632455 6.726513153751654
20.742131526817985 14.415011488256487 -6.260579931711945
18.531503560165866 11.688215018711213 1.1232161653248873
19.82174670821476 19.224011801816122 5.71089205248426
20.750775025467018 14.44111044092314 -6.028946842271248
11.437003368337894 13.955724641972054 -3.3538606329715126
20.903910572445152 16.975531187333683 7.973986820901867
20.877435475207985 14.89971677047105 -0.10036432759619274
15.295898352122306 20.950175842276302 -5.176899450215586
13.40451264714412 20.273575248099085 -0.3135950743052529
20.997791675876424 15.85141209827065 -3.724010583914172
11.515063947352768 18.21028247146492 2.232451381815828
18.532880798984436 20.310976091111613 -8.934895895123617
20.68680118946002 14.258192143066255 -4.641181010755762
16.8899148046953 20.92016784676947 -6.155465574589629
15.292475375320723 11.050312241618421 0.38411276671342875
18.25466790043111 11.537212456461145 6.130767941852561
14.141087523416493 20.641599336909874 -4.732502310193885
16.848802553097013 20.927426734701996 8.443087440600593
17.777384089929267 20.673425488532615 -7.965903084994794
12.733284681150149 19.785309898223886 -1.70277916457227
12.583645418715456 12.349175247298756 -4.238390821884083
11.00208519551009 16.144387004472616 2.942647341325184
13.765051088056136 11.527304687215892 -0.353148706544955
11.410010884833884 14.017072890231065 6.554581753449213
13.087481995658777 11.93585939288658 9.361626149329993
18.653835469617118 11.762411381433765 -0.5487495974005245
12.808816761092762 12.150798844472074 7.001211952737471
17.688250748321067 20.70635840228869 -6.866202252804452
11.349811422837032 17.837320384914687 9.115381054509815
20.98640424991246 16.368473413498105 -9.864390733291435
20.835358829089326 17.272519152684115 5.323098942776722
17.420919241253568 20.793849028686175 -0.5570425215916259
18.14472123929781 11.483345175275748 9.50110968766371
11.049881547864388 16.70450501050491 1.1318868559888102
13.485390407443386 11.678340758803134 -0.388960872455721
11.377760682368063 17.906542339036154 -9.99166853834325
11.643021104854991 18.452903362805184 8.41429709935818
15.062197960054418 20.911265349568673 3.7913554610552858
18.493590379757922 11.666178704886558 9.618024297784277
20.60431435484596 17.949433077014806 -1.1408317610069965
12.487440268564338 19.55835975318638 4.486748355494241
20.71820273652591 14.34513960194843 -7.131948268244455
13.152640975331051 20.110054328672103 1.8352830232755721
15.353994233528104 11.041907972850337 -6.796936979910447
14.698385970060384 20.82760819837985 -6.092338331507596
20.994011184962346 16.24464726540674 1.4820268382379709
13.0792950222227 11.941738989075874 -0.6868039591444859
20.98669213330669 15.635443327290314 -7.642889588148369
20.373376704342895 13.57645379620877 4.710107718699824
11.699585630726627 18.550771697456888 2.1670097134695805
11.724857826547758 13.407094410363145 7.13741557502367
20.983533087581833 15.594539810860436 6.2061344359796315
13.800492729441615 20.490230257655035 -4.953679914694837
16.043776038727124 11.000191637829168 -1.1291941599898436
17.794533184459628 11.333132672780039 -8.410411417452256
12.340369811106783 19.40692043942053 -2.8643142999766518
11.027108127096554 15.480051521388074 2.33933740520232
11.760416702649653 13.349352255612231 -9.232044121243115
16.186711762509052 20.996512655616993 -7.084349304747852
12.689307281910136 12.253092778518962 2.27486582557181
19.174206357493375 19.863212911560616 -5.745108779875863
18.98734124847691 11.990537160023997 -7.544523813838941
11.065661072662863 16.807650512390968 9.745771723913219
18.147985310630116 11.484896556520853 3.626032619539771
11.907136592033819 13.127985180447105 -9.984526031438833
17.70639203372377 20.69981129698247 5.875837306109586
20.999265583688405 15.914305054124402 -8.966679519862037
13.510129051756637 20.33595925500848 -8.34260623954998
11.000552949758045 16.07435853567026 -1.3156170753740764
18.24871946782441 11.53421219099838 -6.57840243644912
11.063788020156032 16.79612266017548 -5.050353415031987
11.014250151243042 16.377224661998607 0.6293202922462626
13.769338014839171 20.474834869350865 1.1373531159331165
11.808628912084949 13.273755622951274 4.359452448147065
14.564160495155003 11.210598689154722 7.0518854897193
13.405972798817588 11.72553829359465 -6.933176247169108
16.315340502451992 20.990046128796138 -7.709351820497837
18.450962728418176 11.641929130463236 -4.059592941603711
12.542532371482142 19.611913287684395 6.3365612068026
18.41994095728682 20.375372642786644 -5.471870331050532
16.15046716307769 11.002264549534924 -6.308838261772207
13.807206313833753 11.506487359547162 -0.16340751618967353
13.028944855324424 20.021545887752218 3.347297157196344
20.95221786149115 15.310407183674288 -6.147712771519407
17.71366889645278 11.302837142132464 -4.951355501509321
11.24622972749308 14.450268347026013 1.7656465214475112
20.752458142704416 14.446249182834489 9.816269810380277
18.49130732260367 20.335134118379884 2.5601287832335906
14.15567562880893 11.352584845978287 5.704678718618641
16.34206948593216 11.011714877155265 7.436044578463175
11.028482783807508 16.53293204923486 -7.978758644784712
20.850304868064445 17.21430749270123 1.6748201064363286
11.239564984851839 17.529136510109982 9.07386535178071
16.328081068596653 11.0107753295298 3.2340179044255013
15.12681614253443 11.076835372338078 4.905713632060413
11.01014721342828 16.318385251452433 -7.339542716236014
19.932550102466603 19.087887577550372 -3.1851274292872027
20.850599334615357 14.786869300104456 -1.2437856775606093
18.16229574117122 11.491732358464862 7.628818783776662
17.555916518806676 20.751749550060957 9.678563563018677
20.24282047810728 13.354537017731394 5.086114128577462
13.581239634721996 20.37602539930474 -7.540981941470768
17.569464457728074 11.252708001825848 1.011256036255027
19.490444445181932 19.580055526817787 -0.493013676568161
20.995576255808302 16.21028046129939 1.828906196178803
17.625825024827908 20.728286474891654 3.7783525301191467
14.439234518224048 11.249840938358307 2.205935784261115
15.796199219308935 11.00415520239172 3.893285835008161
13.273687252329715 20.19132661598813 0.0724612316366482
20.923668698351 16.870337031774785 1.3975026125305448
11.621565245386996 13.585603781564224 -7.039383020721419
20.039236108607867 18.94695973147215 -5.3770740219756075
17.49221069103324 20.77213864567723 -5.762512483514859
19.382350203902732 12.317649242921153 -3.86993009953597
11.459307911565428 18.09335027122259 3.434872723327299
11.535216025627692 13.749288098803355 5.559909247261174
19.01009490137401 19.992408882457077 9.499708872522891
11.640963900981108 18.4492456568197 3.1617902260266977
17.39755456668314 20.800712575560333 5.81145224666124
11.117262538202949 17.076510510475252 8.102041171296438
20.865096796725297 14.84638257706758 -9.76071481283978
15.29730287694699 11.049624584614513 -1.6796395008230434
11.325387160384132 14.225741056187548 1.5590952515365828
11.489110290908695 13.843179647626126 -6.953228738089756
12.911028824306957 19.931699006248767 -6.873614374363546
19.834271975411767 12.790894451942728 -0.43890574326105636
14.654158896764315 11.184534111340694 -7.942442683227351
18.859188070981485 11.898165827979248 -4.386343728543145
20.746596038893777 14.428431979341042 -8.954603574824802
11.999709142440185 18.999612150749385 7.5830420801434
20.087122733436285 18.880178425345953 -3.1542685258854846
19.526448627513616 19.54459589763168 1.0374349012159083
11.655394764546937 13.525246406594418 0.4909673169044808
19.89898180731516 12.86983373185618 6.523066603656481
18.45413458199845 11.643714488989584 -4.279824218343114
15.642739810336442 11.01277981668329 -1.95853647388223
11.596858153614832 18.369038176267285 -2.3576471644376396
12.478897518005716 19.54990666233546 1.8031934952536144
13.509723896855755 11.664273425352018 -5.852962735261055
20.99998049740217 15.986034843431828 1.34915827828517
20.280502581884225 18.584046757797253 -2.5651262975775264
17.457054504188637 20.78298987787175 4.482886568283266
18.182889515083165 20.498332287074845 -2.2151177197093634
14.798890190840467 11.146410068172141 -0.7920479895249564
16.762136130832136 20.941573486054843 -2.401061529246027
17.785906371931926 11.329824582449504 5.286363103313276
17.134538156197557 20.869581416521534 9.832526132218263
14.993616271116533 11.102327921324395 -6.3101537413450455
20.98157835962958 15.571191130140384 2.3215771451904104
15.466696511371795 20.97147738494474 8.799795736405844
14.454454987317973 20.75513308055345 -1.3510279569810457
19.26567999185848 19.78620313649112 -5.227571939509121
16.744760702911726 11.055777968638703 5.39071284369877
20.847545342604832 14.77472282670809 3.2399051259728946
13.372262124600354 11.746178934394377 -1.1975767101246824
20.884504434888058 14.931535482311705 -7.799451768555958
19.790448209392967 19.26075181084204 8.764759018056008
11.554630192880595 18.288817877846814 8.818333001482213
18.32402578864524 20.42706495702422 7.357764959673908
20.770737514157315 14.50331580785655 3.871511132902924
17.18363442899829 11.142118822110827 6.415759691230711
11.26948145485478 14.380680916546352 -8.370224763118959
16.239982677872334 11.005762489196051 3.7465507955088206
11.634210995193575 18.437188208881565 -0.8443520676195408
12.720061197637442 12.226142364535134 -3.5247120701544654
20.99444958310307 15.764472163340384 0.09321982757658098
12.678612774516099 12.262569479121739 -8.821935970207234
12.8740653181998 12.097624779045628 -9.982250229126103
11.930438140168224 18.904938255626536 8.350981472543037
11.323297325707813 17.768743083737235 3.1057343665733583
20.490737579466444 18.19847128531802 -3.052217124679659
20.976109215426533 15.511802216159145 6.802243245687677
18.98064135323103 11.985553945634704 3.7100831811820356
20.953447904803124 15.319298997795993 3.088863907000176
14.358968829857302 11.27696954290785 -1.8503762378979296
14.567984615104754 20.79054610012505 -1.4677996787998886
15.099299319921634 20.918204782733877 3.9492297811224475
11.22334630930672 17.477693986989955 8.618805113668706
12.53934953608784 12.391136139084136 -2.7353540046588076
19.076915879669844 12.058859470986153 1.9462603319511924
17.772749948245956 11.324814696614265 -9.84063777995311
20.73951064461277 14.40719152136792 -8.215296503282845
18.95502346199687 11.966659407011598 -1.8474315325373585
20.778278445739776 17.47243169450358 -6.326229320577457
12.179500175063733 19.225489278801273 -5.588599628244799
16.283620119823997 20.991949481678578 -2.7695515980669327
17.471689268980924 11.221492838179858 -5.415297564417852
15.177483262820195 11.068117375985203 -2.2346731764990446
20.91222558893601 16.932759220486325 4.699156173781391
11.07009070649598 16.83426276305652 -0.7655381586647323
16.50148046177103 20.97478817101411 1.279953087174368
11.14821950733698 17.208398134314425 -1.6968779347831227
11.934322564339311 13.089627688909971 -4.7101878325146584
14.68342062019115 11.176451644622794 3.1007807131475023
16.448763018646908 11.020179546098582 -6.514629353113759
11.141603555797555 14.818482335738882 7.861255014808883
18.575482863270274 20.285660744972837 2.3348991394276197
12.441353849081636 19.51226957572364 1.433742543590597
17.47634275503812 11.222928504863418 7.148366811117942
20.65821750584183 14.183131906750319 -7.859963346227559
14.475024750529226 20.761769680329106 5.3841521320318115
14.394307146893947 20.735161080838132 6.130985764558677
13.402907316990701 11.72740013623326 0.24891861695410356
18.260315784121204 11.54007034180442 -4.170517636389201
16.222667265807196 11.004960531813794 1.9201530948085654
11.01902245099583 16.435732321863345 9.074122032150179
18.982366005538637 20.0131649615992 -6.104739536769994
14.787438001631855 11.149258469046877 -2.4972305629596647
11.217588843264997 17.45895288749725 5.822247874242786
20.74087381287833 17.58874651545313 -8.542840064877806
20.900786276555493 15.008892603435251 3.7727466907590905
17.272774003635146 11.164708247099192 9.580319480665022
17.516287017145807 20.7645433864784 5.566681716404336
20.826929025197067 14.69586956721727 7.007000412177181
20.240196847274504 18.64966614809552 -4.8640447785354946
15.398349560236332 11.036330314340791 -8.891303204651258
16.13398025276342 20.998204606843288 -2.9218542816944932
11.224275674190995 14.519305175305824 -8.590020710052306
13.266252021901195 20.1864808601307 3.1257161180680413
16.382829932394948 11.014677418374767 8.893128984927856
20.999755681675015 16.049427963324472 4.1862046308827505
20.6026301509952 17.95340617720686 1.1784088306915645
11.528541032251256 18.237421439903386 -0.28294483207563914
19.22052305596873 19.824687078176964 5.946164537143254
18.580294449989047 11.717234473922753 1.3988195456248178
20.45316492639089 18.273614333690308 -1.3078062274564477
12.288689204972714 19.350548042143842 0.5636999811438788
14.897852063879196 20.87701444809267 3.8554163469443523
14.150367002756623 11.354695082612071 -8.356617948779991
16.640537109536577 20.95880148940311 -0.1643563430319528
18.908354792124335 20.067120898513764 -4.45814410709962
17.90717207995241 11.37802048279636 2.1344194444820133
18.936331975028978 20.04696856083939 2.0520515191768354
15.25584137891143 20.944312686982848 9.982083875986106
18.374697627298076 20.40009217845546 0.9963062639465399
11.021759339199752 15.534038710668897 3.796767512410266
12.623361417476787 19.687588898320367 -9.45069589833773
12.676526872729154 19.735575775206353 5.0382037773356
17.82439599278876 11.344725651318033 3.137132313351076
18.991966997682034 11.993987832671802 7.062402629836491
13.806747917378775 20.493288918162026 -3.188285485318108
20.559376976704158 18.052335641239036 1.4560675596974022
12.337632079681056 19.403977264351024 1.9570992432857803
17.132937091075824 20.869954162788872 7.242626823061286
20.936222886314397 15.203944966333383 3.3352091585012076
19.01144938695205 19.99138730140613 8.732195809618652
17.364391296620845 20.810242861821564 3.5117983048917427
11.938453805461814 18.91613485792965 1.4861953480802885
12.310552297573123 12.625392518965052 -1.93629433341731
20.86987577893635 14.86672602706624 -9.600203648560928
18.134802000395524 20.521351614186543 -6.832140939412758
20.58078310952761 18.004102318612148 -6.805723622270408
20.70970943059106 17.67887970962831 -6.580908349589176
15.252569593468655 11.056180850052018 3.1682784381212663
20.98468579067808 16.39103397321981 7.890917041899993
20.93066085595582 15.170190670367568 2.865894529775616
20.04137038082273 13.055967825412102 -7.825652562107976
14.282758414314792 11.304142108581932 -1.3380279322584538
20.404570889851733 18.366380205349664 -6.267337703077745
11.11815312590003 17.080542038904714 6.683785816542915
19.859115018608097 12.820812796774398 5.410491133444598
15.92207897420492 20.999392794504054 6.616898288671177
11.094852922547922 16.96929466549824 7.5243840170210845
18.570347685845025 20.288742563254537 7.492296815047023
19.023526226148064 12.01775325227142 -1.7986693111877763
15.243944146861045 20.942507414959973 -5.274427178065917
19.56552203555031 12.494710765998732 -9.88504654805361
20.581789031811397 13.998198494362445 -2.379758719431586
14.156435697840646 20.64771671509825 9.496956325609577
11.16209917350746 17.262820491211166 -3.954089706774207
20.13627540556502 18.809132565280237 0.6769708082317578
19.660332617371733 12.593834247984312 -8.168133531958492
11.021173508138784 16.459659399926647 -5.174057146426392
16.06226936546839 11.000387762423554 -5.296132933054832
11.703978669827846 13.441836453487408 2.5045779750528254
20.99114884415605 15.702622772425803 -4.293494639091029
12.673622363851452 12.267010337312625 3.684354460174447
11.393611449996206 17.944526812978914 1.2015044646484991
12.208788286994544 19.259864068817937 3.6185262347606866
13.064069275501105 20.04725966314782 -2.2684191120631265
20.967137904499708 16.57231201077929 -8.104872695356345
20.066133562628682 13.09026498614314 1.711021855530042
12.876155599279254 19.904048688231956 4.300171546021083
20.68650022588962 14.25738253402058 3.9594314107715256
11.937405730825034 13.085325437708915 -6.620592610570652
15.073396110630458 11.086609599044134 6.437840229032659
17.876220182583825 11.365369720628719 -6.414408734527425
12.332991154680213 12.601022782020092 6.30944402812753
16.464794742957473 20.97834971119136 -0.04112822990687448
11.806233814073178 18.72255857196439 5.876237414097163
20.265975459128956 13.392040379509394 -6.814438773010334
20.430709371385774 13.682929766641877 0.7994612155827028
11.490314477950289 13.840662950761224 -4.933878461216148
20.947047679442857 15.274245732138585 -1.92130377185822
11.003882178875099 15.803005793389332 6.209177277060181
11.084410168782501 16.91486425836356 0.953432129966421
12.522591311052686 19.592718860422245 2.0296463269380673
19.53768952074047 12.466623023955261 7.173560402396578
19.63524401539555 12.56707108309379 8.240953221925263
16.19519506281339 20.99618843594327 0.12541955735982668
20.819684404846917 17.33065481537302 2.267127950589341
20.170630310984777 13.2421307483684 -3.312807331430685
20.85671504182332 17.18841028375182 -9.028646156575439
20.99999975517787 15.998435320725939 3.496292953571629
14.873283318458723 20.87139708087286 -9.053312494759997
18.322215262968275 11.571985064113132 -9.09837091248054
19.593451024040174 19.476652087544082 -1.2085989635491305
20.61372057014391 14.072934225141516 8.977454000324595
17.85293539489051 11.356011367115336 -6.207522872484574
13.453748460853213 11.69690772822699 7.565337956262475
14.149305434275078 11.355117910603516 -3.558132928219826
15.567287708130186 11.018759183449895 2.6932865285360386
17.04318808902753 20.8899650930156 -4.067699678940359
16.383231770222658 11.014708292357206 -9.107818478691723
12.527574692634573 19.597535612717145 -0.8369980522096441
14.665800561547693 11.18129562450304 -0.18653311226539238
12.291442911881422 19.353595730580157 -0.6270191566362353
14.016844006839314 20.589890228185297 2.540972183910375
11.764950836402136 13.342113888461542 3.733724641265601
19.029903027423384 12.022602905867881 -7.888146457676979
15.067980333074887 11.087634038422545 5.845462173181273
11.006404241932582 16.25298498969523 5.548722182070593
19.741473226162487 19.316832539925596 1.4834765061015887
12.196451005972175 12.754539316209497 -7.892212833251713
19.176100290754402 19.861655984557636 -4.513352903387597
16.37194376678394 11.013853408256976 -8.802688918039385
18.196021323144073 20.491936146952284 -3.8255893626153696
15.04567447190425 20.908081375285537 0.6910985676396724
11.30842266525639 14.271098003899569 -9.146752155840778
20.825401810510957 17.309769967252866 4.129106527910093
13.555008708172883 11.638576197743497 -6.245099124501879
11.530656061866086 18.241643317449416 -0.23057687360616796
16.55232459398306 11.030599880983475 -1.5377150753171627
16.240890144417932 11.005806177337297 5.042816400328519
13.12186901331263 11.91143521226947 -9.392830979556752
17.140624923980766 11.131840719245737 3.514842568822605
19.474576748306067 19.595457748344547 -1.6256234215437644
11.534572269374582 13.750565586072462 -6.8897899912470395
12.518557300000811 19.58880993180502 7.085032226268307
13.279028232852294 11.805204100032388 -2.563919163355295
14.033033655688518 11.403148534013098 -9.315538520286314
20.522576715050313 13.867794602650882 -7.383889401577055
20.855262353855025 17.194331392553238 0.4491265894244112
11.471664508350317 18.119947564225548 -1.4282399387504405
12.1015267262257 12.869200400270326 2.9276623027170032
17.868950383951084 20.6375666531414 -1.8568496958913894
20.367756056210915 13.566338759516253 5.898438608382886
13.11137380525777 20.081156540375417 3.362942644723862
18.221973476226648 20.47915548635513 4.278060016296248
17.0459196747671 20.88938155945464 8.60621317364686
20.802103189338943 14.607231189701341 7.622945203968378
18.091881422135973 20.541368969344198 9.018345960095349
12.139908882459519 19.178001976759152 5.940868395246902
13.584093641620285 11.622398320136874 -4.622127293133069
18.33259658622122 20.422555049510308 -3.9372752582452497
16.294388196598256 11.008673964796166 2.1774935495919543
20.95547592919509 16.665776475378998 3.347135452203446
20.91641100599683 15.08955899690687 -1.9529479617736705
12.132755185740793 12.830707090440319 -8.14962248397122
12.689034949573326 19.746666576418708 -6.608180530768215
15.88134243787997 20.998591840003716 8.634143718923038
13.110139270350562 11.91971753879342 -0.958014400773493
13.367839609309621 11.748914059010254 -3.5075077093515006
11.687902026577422 13.469029619374242 -2.9145810210922356
17.962377765749395 11.401187815914591 2.3683826423743977
20.944654125843698 15.258113502092877 -2.6996345523027436
17.725391621769212 20.69286945818106 -6.226778644143831
11.600057548667031 13.625024963297923 -7.063392299274924
20.769065521475092 14.49799665383944 3.4362196327447982
19.622664292417127 12.553798696470864 -3.7425552794657424
13.82028110161937 11.500130499220857 5.891023823597916
12.737268983176268 19.788744688133047 -7.637372442204093
14.521680717756553 11.223539793974284 -9.699041525045669
11.6880080291904 18.531150972121882 5.33366821100897
12.898735316633442 12.077990647167791 -8.367489217382643
14.701057715343119 11.171672241745558 6.675855218097123
20.894059793840285 14.976193995760923 -0.4625225074061241
11.948413551840122 18.92995686881006 -2.4266807132349015
12.332069713428243 19.397982844696195 0.29229146790123295
17.00549935773122 20.897853717864805 9.591533518945752
13.251108239729756 11.82344710433133 1.8734045096771084
20.730232701127708 17.62015387947629 -3.857045847665299
20.305614173342313 13.458015226183727 8.294680834947528
20.88670853699204 14.941661833585728 -9.080376394214118
18.655295192985953 20.236674101002542 -8.03978298890163
20.987727236586014 15.649889998117683 -0.4410437358380843
14.556340556913025 20.787049969698018 9.65595076354165
19.085502510061602 12.065578281322203 9.167728224682055
17.960615107042084 20.59956393607463 -9.763890863387903
15.100445038490156 20.918414467206176 9.681713531551534
11.711796075054625 18.571246214986633 3.4018242457678163
20.948682803260127 15.285480222304878 -7.879569817382707
19.83301045670277 12.78938777819444 -0.6714176540360626
17.44170161885395 20.787639965807152 2.2804141919204675
12.363429654133451 12.568476122833466 -3.1825253681925574
17.85610017882882 20.64272464466197 -6.591375800644985
13.991608952527791 11.42109561134615 8.957434255764007
18.39201448849772 20.390702299953503 5.333340414990053
12.187744090635004 12.764771278331057 -9.969303546578221
11.007308527587643 15.729755922727383 -0.6839816123000926
11.221437984532628 14.5284888500822 -9.926068312933493
19.476943280620347 19.59316927284939 -6.244308069420401
20.073990442607627 13.101275819685199 -1.2893950672147838
18.705991437643583 11.795524962685638 2.6181813764420454
20.860113118913763 14.825563764454472 -3.5964083887186487
13.801327801165147 20.490639215308967 -9.017061577818275
19.75015218704303 12.692983433059888 1.6343133359466009
12.03169411404373 19.04180018993438 1.3532633099651257
17.099532957663964 11.122395334284384 2.0224385668079883
19.461145133985088 19.60838944149483 5.216699421367107
20.52406550329996 13.870955302993544 8.48817864114006
15.230168255487522 20.940380459553786 -4.731827826452433
16.241080638827615 11.005815369293757 9.46629787771139
17.252483374024635 11.159412701149595 8.335129684776145
20.34440339866499 18.475107898591105 7.882050688266151
18.321400108616572 20.428442337404313 1.2378581677298968
20.906093357749718 16.96449363141708 8.944193191853927
14.22185399230715 11.326864352993166 -1.446771089089797
11.379379510110954 17.91046232321329 5.932832561308581
12.787184215048638 12.168836373636939 -9.82994233456332
11.497648526596823 13.825412404628354 -7.574957532153313
17.417526830209475 11.205146750354473 8.985227120787648
14.127715578227235 20.6362216344764 -9.441076901483536
20.54616116166521 18.081446298170295 -4.574025071034102
20.712074554834384 17.672230064818336 6.950711169028619
17.329394434591567 20.820032202929454 8.415166962475901
19.765049857760655 19.290045526824283 -0.8576606105788738
